# .PCD v.7 - Point Cloud Data file format
VERSION .7
FIELDS x y z intensity
SIZE 4 4 4 4
TYPE F F F F
COUNT 1 1 1 1
WIDTH 774
HEIGHT 1
VIEWPOINT 0 0 0 1 0 0 0
POINTS 774
DATA ascii
4.275404453277588 10.439897537231445 -1.9830622673034668 8.000
3.768561840057373 5.9096856117248535 -1.998531699180603 6.000
2.9789109230041504 7.279623031616211 -1.9509429931640625 6.000
7.651054859161377 14.230818748474121 3.7161877155303955 3.000
7.580978870391846 14.100484848022461 2.524360418319702 10.000
7.3608551025390625 22.46602439880371 4.584359169006348 16.000
7.531224250793457 14.013801574707031 1.3888267278671265 12.000
7.398191928863525 22.4608154296875 2.8951501846313477 14.000
7.565976142883301 14.072561264038086 0.2782786190509796 2.000
7.409759521484375 22.44324493408203 1.236829400062561 21.000
7.410937309265137 22.4205265045166 -0.41157132387161255 15.000
4.675256729125977 8.682648658752441 -1.2047914266586304 95.000
5.899805068969727 17.856353759765625 -1.63895583152771 114.000
4.909043788909912 9.109053611755371 -2.0008487701416016 7.000
3.8909614086151123 11.792129516601562 -1.9634582996368408 7.000
3.515000343322754 6.512430191040039 -1.9722096920013428 7.000
2.6345303058624268 8.012413024902344 -1.9361461400985718 7.000
7.590297698974609 11.880949974060059 2.986795663833618 10.000
7.215294361114502 17.54366111755371 4.713891506195068 9.000
7.520275115966797 11.794012069702148 1.9609490633010864 10.000
7.194306373596191 17.457996368408203 3.3199024200439453 12.000
7.487700939178467 11.75648307800293 0.9698042273521423 19.000
7.205095291137695 17.449615478515625 1.980553150177002 20.000
7.457491397857666 11.709071159362793 0.0 19.000
7.220648765563965 17.470016479492188 0.6589024662971497 24.000
7.223653316497803 17.468650817871094 -0.66219562292099 23.000
5.514649868011475 8.634035110473633 -1.4313106536865234 1.000
4.874100208282471 11.779268264770508 -1.3316974639892578 2.000
4.322396278381348 6.750927925109863 -1.697952389717102 6.000
4.315582275390625 10.43401050567627 -1.984798550605774 7.000
3.78759503364563 5.891791820526123 -1.9971543550491333 6.000
3.0070812702178955 7.275906085968018 -1.9527560472488403 6.000
7.6508870124816895 14.106322288513184 3.6909186840057373 3.000
7.5701189041137695 13.963231086730957 2.5044591426849365 10.000
7.446237087249756 22.44821548461914 4.586265563964844 16.000
7.538609981536865 13.90510082244873 1.3807648420333862 12.000
7.480469703674316 22.446626663208008 2.8966715335845947 15.000
7.5567145347595215 13.932682991027832 0.27605342864990234 3.000
7.4737772941589355 22.361473083496094 1.2338200807571411 14.000
7.552267551422119 13.918689727783203 -0.8308433890342712 4.000
7.449463367462158 22.26283073425293 -0.4091716408729553 8.000
4.715342998504639 8.680717468261719 -1.206921100616455 102.000
5.971527576446533 17.853506088256836 -1.6406954526901245 118.000
4.944742202758789 9.095312118530273 -2.0018012523651123 7.000
3.9352240562438965 11.787846565246582 -1.965024471282959 7.000
3.543466806411743 6.507986068725586 -1.974796175956726 6.000
2.6646478176116943 8.005014419555664 -1.936707615852356 7.000
7.592726230621338 11.789327621459961 2.9706954956054688 10.000
7.246971607208252 17.43868637084961 4.692753314971924 15.000
7.52327299118042 11.70390510559082 1.9505109786987305 10.000
7.267706871032715 17.454240798950195 3.324239492416382 13.000
7.487602233886719 11.661816596984863 0.964237630367279 20.000
7.281445026397705 17.45292091369629 1.9839502573013306 20.000
7.457114219665527 11.614352226257324 0.0 19.000
7.289444446563721 17.45496368408203 0.6593387126922607 21.000
7.449860095977783 11.594172477722168 -0.9588449597358704 14.000
7.289556980133057 17.44666862487793 -0.6623709797859192 24.000
4.481380462646484 6.961397647857666 -1.155738353729248 1.000
4.8643975257873535 11.640584945678711 -1.3178935050964355 4.000
4.3232221603393555 6.69807243347168 -1.6885887384414673 5.000
4.35759162902832 10.427210807800293 -1.9865350723266602 7.000
3.8133695125579834 5.886599540710449 -1.9999090433120728 6.000
3.0318603515625 7.260359764099121 -1.9515475034713745 6.000
7.649806976318359 13.987627029418945 3.6667730808258057 2.000
7.5750274658203125 13.850900650024414 2.4892401695251465 13.000
7.523770809173584 22.41975975036621 4.585789203643799 15.000
7.541698932647705 13.795666694641113 1.3724850416183472 13.000
7.51195764541626 22.268569946289062 2.877200126647949 7.000
7.568114757537842 13.838238716125488 0.2747008502483368 3.000
7.475065231323242 22.108190536499023 1.2212594747543335 10.000
7.556462287902832 13.811211585998535 -0.8259862065315247 4.000
7.4454264640808105 21.995174407958984 -0.4047212600708008 8.000
4.737268447875977 8.648971557617188 -1.2047914266586304 255.000
6.033811569213867 17.83255386352539 -1.6406954526901245 97.000
4.98236083984375 9.08875560760498 -2.0041818618774414 7.000
3.983139991760254 11.78738021850586 -1.9673736095428467 7.000
3.564999580383301 6.493460178375244 -1.974149465560913 7.000
2.695678949356079 8.004901885986328 -1.9389537572860718 7.000
7.592544078826904 11.699173927307129 2.9545958042144775 10.000
7.310614585876465 17.419992446899414 4.6945648193359375 14.000
7.522338390350342 11.61317253112793 1.9397251605987549 10.000
7.318094253540039 17.40380096435547 3.3194689750671387 14.000
7.486247539520264 11.570711135864258 0.9588449597358704 20.000
7.300693511962891 17.337017059326172 1.9734972715377808 18.000
7.45820951461792 11.527393341064453 0.0 22.000
7.298887252807617 17.307395935058594 0.6547145247459412 17.000
7.426548480987549 11.469724655151367 -0.9506690502166748 21.000
7.3125433921813965 17.331336975097656 -0.6589512825012207 23.000
4.424904823303223 6.823978424072266 -1.1352612972259521 2.000
4.838325500488281 11.465459823608398 -1.299922227859497 3.000
4.329230308532715 6.656301498413086 -1.6818259954452515 6.000
4.393102169036865 10.414972305297852 -1.9869693517684937 8.000
3.8325796127319336 5.871241092681885 -1.999220371246338 6.000
3.055919885635376 7.250266075134277 -1.9515475034713745 6.000
7.647993564605713 13.869114875793457 3.642627477645874 4.000
7.529113292694092 13.659195899963379 2.459193229675293 9.000
7.531811237335205 22.1865177154541 4.543371677398682 8.000
7.532108783721924 13.670246124267578 1.3624621629714966 14.000
7.497707843780518 21.98517417907715 2.843733787536621 7.000
7.549973964691162 13.69135570526123 0.27230116724967957 3.000
7.469247817993164 21.85175132751465 1.208437204360962 10.000
7.556379795074463 13.69731616973877 -0.8207352161407471 4.000
7.498103618621826 21.91123390197754 -0.40363049507141113 9.000
4.768322467803955 8.637558937072754 -1.2053998708724976 255.000
5.014847755432129 9.076478958129883 -2.005134344100952 7.000
4.023003578186035 11.776443481445312 -1.9677650928497314 7.000
3.5911920070648193 6.490054130554199 -1.976736068725586 7.000
2.7237772941589355 8.000532150268555 -1.9400768280029297 7.000
7.591137409210205 11.61253833770752 2.9390153884887695 10.000
7.376855373382568 17.415761947631836 4.700000762939453 17.000
7.52291202545166 11.530119895935059 1.9299829006195068 12.000
7.359419345855713 17.340904235839844 3.312095880508423 14.000
7.482343673706055 11.481063842773438 0.9534523487091064 22.000
7.3708930015563965 17.334308624267578 1.9761104583740234 21.000
7.460887908935547 11.448152542114258 0.0 23.000
7.371891975402832 17.31987953186035 0.6561104655265808 17.000
7.430466651916504 11.392822265625 -0.946320116519928 21.000
7.391506195068359 17.357566833496094 -0.6608803272247314 17.000
4.445987701416016 6.804347038269043 -1.134567141532898 2.000
4.827624320983887 11.334966659545898 -1.2868995666503906 3.000
4.339210510253906 6.623506546020508 -1.6771440505981445 6.000
4.432323932647705 10.406370162963867 -1.9882715940475464 8.000
3.8533496856689453 5.860506534576416 -1.9999090433120728 6.000
3.084057569503784 7.246250629425049 -1.9533605575561523 6.000
7.641862392425537 13.749991416931152 3.617920398712158 4.000
7.118420124053955 12.808365821838379 2.3101272583007812 10.000
7.525726795196533 21.929277420043945 4.4957122802734375 8.000
7.527764320373535 13.550262451171875 1.353092908859253 14.000
7.504047870635986 21.754772186279297 2.8172647953033447 7.000
7.539466857910156 13.565746307373047 0.2702941298484802 3.000
7.46150541305542 21.582494735717773 1.194960594177246 12.000
7.166150093078613 12.888903617858887 -0.7736072540283203 9.000
7.52470064163208 21.74083137512207 -0.4009690284729004 1.000
4.800858497619629 8.625198364257812 -1.2060084342956543 255.000
5.409693241119385 15.634949684143066 -1.44150710105896 1.000
5.052473068237305 9.069637298583984 -2.0075151920318604 7.000
4.068113803863525 11.773999214172363 -1.9697226285934448 8.000
3.612647533416748 6.475369930267334 -1.9760894775390625 6.000
2.7548556327819824 8.000190734863281 -1.9423229694366455 7.000
7.58721399307251 11.51858901977539 2.9218766689300537 10.000
7.408035755157471 17.320755004882812 4.681277751922607 14.000
7.520934581756592 11.439675331115723 1.9191970825195312 10.000
7.440266132354736 17.362634658813477 3.3212037086486816 13.000
7.479917526245117 11.390265464782715 0.9480597376823425 23.000
7.449008464813232 17.349599838256836 1.9808143377304077 15.000
7.460989952087402 11.3614501953125 0.0 26.000
7.4224419593811035 17.271085739135742 0.6552380323410034 12.000
7.432424545288086 11.30509090423584 -0.9412754774093628 20.000
7.3967976570129395 17.20311737060547 -0.6559699773788452 10.000
4.431562423706055 6.730906963348389 -1.1248492002487183 2.000
4.8092169761657715 11.177864074707031 -1.2710119485855103 3.000
4.338036060333252 6.571598529815674 -1.6677803993225098 5.000
4.467648983001709 10.388571739196777 -1.9878374338150024 8.000
3.8787906169891357 5.852351665496826 -2.0019750595092773 6.000
3.1093332767486572 7.2354416847229 -1.9533605575561523 6.000
7.652889251708984 13.651768684387207 3.5993900299072266 4.000
6.731347560882568 19.490842819213867 5.508248329162598 6.000
7.137732982635498 12.738204956054688 2.3019325733184814 13.000
7.577084064483643 21.818082809448242 4.478555202484131 7.000
7.207208633422852 12.862136840820312 1.2868545055389404 10.000
7.495802402496338 21.487102508544922 2.7859280109405518 7.000
7.1685943603515625 12.788009643554688 0.2552850544452667 10.000
7.472174644470215 21.35939598083496 1.1841009855270386 10.000
7.1559367179870605 12.760213851928711 -0.7674372792243958 9.000
7.488729000091553 21.38280487060547 -0.3948606848716736 1.000
4.834869384765625 8.611871719360352 -1.2066168785095215 255.000
5.4480485916137695 15.560946464538574 -1.4365055561065674 7.000
5.088086128234863 9.055336952209473 -2.008467435836792 7.000
4.10837459564209 11.757396697998047 -1.96933114528656 8.000
3.63991117477417 6.468398571014404 -1.9780293703079224 7.000
2.7841591835021973 7.990039825439453 -1.9423229694366455 7.000
7.591488838195801 11.433670043945312 2.907334804534912 10.000
7.469547271728516 17.289033889770508 4.680069923400879 16.000
7.520397186279297 11.348072052001953 1.9084111452102661 10.000
7.472562313079834 17.262941360473633 3.3073253631591797 9.000
7.485806465148926 11.308713912963867 0.9435368180274963 24.000
7.4532060623168945 17.185314178466797 1.965135097503662 13.000
7.457022190093994 11.265247344970703 0.0 21.000
7.431981563568115 17.119998931884766 0.6505265831947327 12.000
7.438769340515137 11.229187965393066 -0.9371004700660706 23.000
7.406067371368408 17.052135467529297 -0.6512349843978882 10.000
4.43017053604126 6.6754374504089355 -1.1182548999786377 3.000
4.793741703033447 11.035569190979004 -1.256687045097351 3.000
4.35667085647583 6.547515392303467 -1.6656997203826904 2.000
4.512559413909912 10.38793659210205 -1.9908764362335205 8.000
3.899195671081543 5.838776588439941 -2.0019750595092773 6.000
3.139692783355713 7.232898235321045 -1.9557781219482422 6.000
7.282092571258545 12.884843826293945 3.403416872024536 9.000
6.74761438369751 19.319019317626953 5.466244697570801 8.000
7.136979103088379 12.628122329711914 2.2867138385772705 10.000
7.619061470031738 21.694242477416992 4.458538055419922 1.000
7.212853908538818 12.767516136169434 1.2798820734024048 13.000
7.503517150878906 21.258237838745117 2.759763479232788 7.000
7.173825740814209 12.693276405334473 0.253888875246048 13.000
7.469297885894775 21.114280700683594 1.1719328165054321 10.000
7.088597297668457 12.537405014038086 -0.7554911971092224 1.000
7.487431526184082 21.142101287841797 -0.3908902406692505 1.000
4.869791507720947 8.6035795211792 -1.2078338861465454 92.000
5.528079032897949 15.614620208740234 -1.443246603012085 6.000
5.122084140777588 9.041791915893555 -2.0094199180603027 7.000
4.153906345367432 11.749244689941406 -1.9705055952072144 7.000
3.660083770751953 6.45145320892334 -1.976736068725586 7.000
2.8136494159698486 7.984869003295898 -1.9434460401535034 7.000
7.589180946350098 11.344104766845703 2.8912346363067627 10.000
7.554092884063721 17.31844711303711 4.695168972015381 10.000
7.521453380584717 11.264115333557129 1.8986691236495972 10.000
7.4637770652771 17.078819274902344 3.2769670486450195 7.000
7.485085964202881 11.222358703613281 0.9384921193122864 23.000
7.449341297149658 17.013423919677734 1.9484105110168457 10.000
7.456052303314209 11.178847312927246 0.0 22.000
7.428528785705566 16.949779510498047 0.6450299024581909 10.000
7.440521240234375 11.147159576416016 -0.9324036836624146 26.000
7.426425933837891 16.93693733215332 -0.6478152871131897 23.000
4.432786464691162 6.629073619842529 -1.1130489110946655 3.000
4.785317897796631 10.911739349365234 -1.2444456815719604 3.000
4.389039039611816 6.546480178833008 -1.6693410873413086 2.000
4.551757335662842 10.378885269165039 -1.9921786785125732 8.000
3.9182097911834717 5.823136806488037 -2.001286506652832 7.000
3.1678407192230225 7.228560924530029 -1.9575912952423096 6.000
7.2642998695373535 12.749288558959961 3.3742175102233887 10.000
6.744277477264404 19.094940185546875 5.409379005432129 8.000
7.143111705780029 12.536624908447266 2.2746169567108154 10.000
7.647134780883789 21.53337287902832 4.430895805358887 1.000
7.2006683349609375 12.642719268798828 1.2698591947555542 13.000
7.504317283630371 21.0262393951416 2.732990264892578 6.000
7.174769878387451 12.59214973449707 0.2523617744445801 10.000
7.468163967132568 20.87885093688965 1.1602880954742432 10.000
7.15704870223999 12.555959701538086 -0.7581167221069336 9.000
7.47275447845459 20.868724822998047 -0.3863089978694916 3.000
4.905945301055908 8.59730339050293 -1.209355115890503 34.000
5.616938591003418 15.691375732421875 -1.452162265777588 5.000
5.1523966789245605 9.02172565460205 -2.008943557739258 7.000
4.200705528259277 11.750948905944824 -1.9732462167739868 7.000
3.690977096557617 6.453310012817383 -1.981262445449829 7.000
2.843137502670288 7.979589462280273 -1.9445691108703613 7.000
7.587708473205566 11.256723403930664 2.8756542205810547 10.000
7.5568318367004395 17.16097640991211 4.659535884857178 10.000
7.519248962402344 11.176183700561523 1.8882311582565308 10.000
7.474663734436035 16.942279815673828 3.255716323852539 10.000
7.486637592315674 11.14028549194336 0.9337953329086304 19.000
7.450470924377441 16.86353874206543 1.9340379238128662 10.000
7.460151195526123 11.100889205932617 0.0 21.000
7.446213245391846 16.830062866210938 0.6414526700973511 10.000
7.44179105758667 11.065255165100098 -0.9277068376541138 27.000
7.4673027992248535 16.869783401489258 -0.6462369561195374 3.000
4.436750888824463 6.587651252746582 -1.108536958694458 3.000
4.784138202667236 10.806294441223145 -1.234287977218628 7.000
4.340631008148193 6.425790309906006 -1.6422903537750244 7.000
4.590134143829346 10.37274169921875 -1.9939152002334595 9.000
3.946611166000366 5.821354389190674 -2.005418300628662 7.000
3.188852548599243 7.211359977722168 -1.9557781219482422 6.000
7.268708229064941 12.654146194458008 3.355687141418457 10.000
6.741081714630127 18.875669479370117 5.3538055419921875 8.000
7.150210380554199 12.452912330627441 2.263690710067749 12.000
7.631903648376465 21.254764556884766 4.378946781158447 1.000
7.196674823760986 12.53885555267334 1.261797308921814 13.000
7.506693363189697 20.81448745727539 2.708651065826416 6.000
7.173851013183594 12.489002227783203 0.250791072845459 12.000
7.469507217407227 20.666122436523438 1.1498209238052368 9.000
7.148580074310303 12.439992904663086 -0.7526031136512756 13.000
7.444166660308838 20.573501586914062 -0.3812914192676544 9.000
4.93690299987793 8.58528995513916 -1.2099635601043701 29.000
5.668941974639893 15.672663688659668 -1.452162265777588 7.000
5.185959339141846 9.010972023010254 -2.0103719234466553 7.000
4.242164611816406 11.743924140930176 -1.9744209051132202 7.000
3.7123568058013916 6.44103479385376 -1.981262445449829 7.000
2.8728787899017334 7.9792866706848145 -1.9468151330947876 7.000
7.592014312744141 11.182950973510742 2.863189697265625 10.000
7.554610252380371 17.00279426574707 4.623297691345215 9.000
7.515976428985596 11.091765403747559 1.8781410455703735 10.000
7.524799346923828 16.90390396118164 3.2531142234802246 3.000
7.481582164764404 11.053450584411621 0.928576648235321 18.000
7.44246768951416 16.68755340576172 1.9167907238006592 10.000
7.457667827606201 11.018131256103516 0.0 21.000
7.430707931518555 16.645566940307617 0.6353453397750854 8.000
7.4397807121276855 10.979350090026855 -0.9226621389389038 28.000
7.482459545135498 16.753673553466797 -0.6427295804023743 3.000
4.443024635314941 6.547548294067383 -1.1043721437454224 3.000
4.739688873291016 10.605642318725586 -1.213191270828247 4.000
4.319242000579834 6.348710536956787 -1.6261640787124634 4.000
4.62631368637085 10.35665512084961 -1.9939152002334595 8.000
3.966907501220703 5.80754280090332 -2.005418300628662 6.000
3.2199344635009766 7.21347713470459 -1.9594043493270874 6.000
7.2701005935668945 12.554916381835938 3.336033821105957 10.000
6.738898277282715 18.663475036621094 5.300170421600342 8.000
7.189924240112305 12.421466827392578 2.2625200748443604 15.000
7.5411696434021 20.773509979248047 4.28505802154541 3.000
7.198907375335693 12.436959266662598 1.2541711330413818 14.000
7.500298976898193 20.571331024169922 2.680356740951538 6.000
7.191093921661377 12.418463706970215 0.24987481534481049 17.000
7.470664978027344 20.434593200683594 1.1384377479553223 10.000
7.196967601776123 12.423605918884277 -0.7531282305717468 20.000
7.452550888061523 20.362972259521484 -0.3778882324695587 9.000
4.979543209075928 8.586454391479492 -1.212701678276062 28.000
5.78021764755249 15.799147605895996 -1.4658619165420532 5.000
5.220183849334717 8.994027137756348 -2.0108482837677 7.000
4.287363529205322 11.740642547607422 -1.9763784408569336 7.000
3.7359392642974854 6.427384853363037 -1.981262445449829 7.000
2.901273012161255 7.966414451599121 -1.9462536573410034 7.000
7.590120792388916 11.092498779296875 2.8470897674560547 10.000
7.548367023468018 16.822265625 4.581624984741211 10.000
7.5230536460876465 11.01508903503418 1.8697905540466309 9.000
7.543306350708008 16.779645919799805 3.2344655990600586 3.000
7.4840803146362305 10.970341682434082 0.923879861831665 20.000
7.457645893096924 16.55814552307129 1.9050313234329224 9.000
7.461353302001953 10.937040328979492 0.0 22.000
7.434178829193115 16.49066162109375 0.6304594278335571 7.000
7.4386701583862305 10.895655632019043 -0.9177913665771484 28.000
7.470901012420654 16.564424514770508 -0.6365039348602295 3.000
4.4558024406433105 6.5148773193359375 -1.1015956401824951 3.000
4.755218505859375 10.541433334350586 -1.2077217102050781 7.000
4.342482566833496 6.332836627960205 -1.6261640787124634 5.000
4.667276859283447 10.346362113952637 -1.9952175617218018 8.000
3.9898829460144043 5.797618865966797 -2.006795883178711 6.000
3.244359016418457 7.197203636169434 -1.9581955671310425 6.000
7.269659996032715 12.453725814819336 3.3158187866210938 13.000
6.7311787605285645 18.440181732177734 5.24330472946167 7.000
7.2416276931762695 12.405692100524902 2.2644712924957275 16.000
7.530827045440674 20.521259307861328 4.238351821899414 9.000
7.24855375289917 12.42250919342041 1.2552605867385864 21.000
7.508719444274902 20.362092971801758 2.656625986099243 7.000
7.253303527832031 12.425663948059082 0.25052928924560547 19.000
7.465836524963379 20.20229721069336 1.12692391872406 10.000
7.25288200378418 12.419963836669922 -0.75444096326828 22.000
7.455975532531738 20.15396499633789 -0.3744850158691406 9.000
5.017001628875732 8.58187198638916 -1.2145271301269531 26.000
5.865545272827148 15.860639572143555 -1.4734729528427124 10.000
5.250307559967041 8.973631858825684 -2.0103719234466553 7.000
4.332075119018555 11.729483604431152 -1.9771615266799927 7.000
3.7607951164245605 6.418471813201904 -1.9825557470321655 7.000
2.931584119796753 7.96309757232666 -1.9479382038116455 7.000
7.585747241973877 11.003536224365234 2.8309898376464844 12.000
7.580024719238281 16.736141204833984 4.5653181076049805 9.000
7.517933368682861 10.925551414489746 1.8590047359466553 10.000
7.536736488342285 16.609710693359375 3.206709146499634 2.000
7.48558235168457 10.890725135803223 0.9193570017814636 19.000
7.452649116516113 16.393936157226562 1.889090657234192 10.000
7.45698356628418 10.84913444519043 0.0 22.000
7.43583345413208 16.3418025970459 0.6257479786872864 7.000
7.442720413208008 10.820320129394531 -0.9136164784431458 25.000
7.468652725219727 16.406352996826172 -0.6314182877540588 3.000
4.4672698974609375 6.482981204986572 -1.0988191366195679 3.000
4.734311103820801 10.398038864135742 -1.1931363344192505 3.000
4.354824542999268 6.303561687469482 -1.6225224733352661 2.000
4.698265552520752 10.318804740905762 -1.9930469989776611 8.000
4.01420783996582 5.789578437805176 -2.008861780166626 7.000
3.271470308303833 7.190250396728516 -1.9594043493270874 6.000
7.315558910369873 12.432474136352539 3.316941738128662 19.000
6.737020969390869 18.257957458496094 5.198070049285889 7.000
7.303676128387451 12.412261009216309 2.27032470703125 17.000
7.539288520812988 20.324562072753906 4.203083515167236 9.000
7.303238391876221 12.416449546813965 1.2572215795516968 23.000
7.5061259269714355 20.138103485107422 2.630765676498413 6.000
7.310579299926758 12.423966407775879 0.2510092258453369 21.000
7.4717020988464355 20.003034591674805 1.1172417402267456 9.000
7.308858871459961 12.416084289550781 -0.755753755569458 24.000
7.45278263092041 19.931129455566406 -0.37081998586654663 9.000
5.06204891204834 8.589959144592285 -1.2181780338287354 24.000
5.919130325317383 15.835402488708496 -1.4730379581451416 5.000
5.286588191986084 8.963705062866211 -2.0122766494750977 7.000
4.374717712402344 11.718916893005371 -1.9779446125030518 7.000
3.780719518661499 6.40114688873291 -1.981262445449829 7.000
2.9619076251983643 7.959667205810547 -1.949622631072998 7.000
7.589219570159912 10.926787376403809 2.8180060386657715 12.000
7.5738654136657715 16.568368911743164 4.526664733886719 7.000
7.522158145904541 10.850422859191895 1.8506543636322021 10.000
7.521900653839111 16.424360275268555 3.175917148590088 3.000
7.483779430389404 10.807132720947266 0.9144862294197083 19.000
7.455926418304443 16.25030517578125 1.8755018711090088 10.000
7.460634231567383 10.773721694946289 0.0 23.000
7.442793846130371 16.206756591796875 0.6215599775314331 6.000
7.440652370452881 10.736889839172363 -0.9087456464767456 28.000
7.457047939300537 16.23033332824707 -0.6256310343742371 3.000
4.470090866088867 6.4388861656188965 -1.0939600467681885 3.000
4.7218017578125 10.275256156921387 -1.1808950901031494 3.000
4.745560169219971 10.326951026916504 -1.9978222846984863 8.000
4.033015251159668 5.773561954498291 -2.0081732273101807 7.000
3.298572540283203 7.183197498321533 -1.9606131315231323 6.000
7.372584819793701 12.429908752441406 3.3231186866760254 21.000
6.73661470413208 18.062345504760742 5.148958683013916 7.000
7.362078666687012 12.412175178527832 2.2750072479248047 20.000
7.537858963012695 20.105079650878906 4.163049697875977 9.000
7.359239101409912 12.41230297088623 1.259400486946106 21.000
7.509929180145264 19.935283660888672 2.6076433658599854 6.000
7.36410665512085 12.415570259094238 0.2513582706451416 25.000
7.466573715209961 19.778284072875977 1.1061204671859741 10.000
7.3623480796813965 12.407671928405762 -0.7568039298057556 25.000
7.45607328414917 19.729610443115234 -0.3675476610660553 9.000
5.094537258148193 8.576502799987793 -1.2187864780426025 7.000
5.671812534332275 15.013103485107422 -1.398233413696289 3.000
5.317844867706299 8.945197105407715 -2.0122766494750977 7.000
4.419951915740967 11.715127944946289 -1.9799021482467651 7.000
3.8030407428741455 6.38791036605835 -1.981262445449829 7.000
2.987105369567871 7.942437648773193 -1.9479382038116455 7.000
7.583342552185059 10.841456413269043 2.8024256229400635 12.000
7.595249652862549 16.470458984375 4.5067338943481445 5.000
7.524069309234619 10.776711463928223 1.8423038721084595 10.000
7.520577430725098 16.278623580932617 3.1524977684020996 3.000
7.486748695373535 10.735218048095703 0.9104852676391602 19.000
7.451306343078613 16.099130630493164 1.860867977142334 10.000
7.45482873916626 10.689468383789062 0.0 23.000
7.4429473876953125 16.066362380981445 0.6171103119850159 7.000
7.4380927085876465 10.653608322143555 -0.903874933719635 25.000
7.454108715057373 16.083097457885742 -0.62089604139328 4.000
4.474381923675537 6.39968729019165 -1.0897953510284424 2.000
4.713722229003906 10.16396713256836 -1.1699559688568115 4.000
4.771499156951904 10.293285369873047 -1.9943492412567139 7.000
4.0572967529296875 5.765341758728027 -2.0102391242980957 7.000
3.3254318237304688 7.178823471069336 -1.9624261856079102 6.000
7.428431510925293 12.425004959106445 3.3287339210510254 22.000
6.725560188293457 17.84209632873535 5.092738628387451 7.000
7.418401718139648 12.413127899169922 2.2796897888183594 17.000
7.541074275970459 19.90192222595215 4.126352310180664 9.000
7.420411586761475 12.416465759277344 1.262450933456421 20.000
7.510729789733887 19.738637924194336 2.585129499435425 6.000
7.421511650085449 12.413386344909668 0.25183820724487305 25.000
7.471529960632324 19.584138870239258 1.0966999530792236 12.000
7.427403450012207 12.418317794799805 -0.7590356469154358 27.000
7.505289077758789 19.652090072631836 -0.36658775806427 10.000
5.137194633483887 8.579955101013184 -1.2218289375305176 17.000
5.67625093460083 14.867557525634766 -1.3864909410476685 3.000
5.352822780609131 8.93289566040039 -2.013705253601074 7.000
4.457897186279297 11.698097229003906 -1.9795105457305908 7.000
3.8302876949310303 6.382877349853516 -1.9838488101959229 7.000
3.017404079437256 7.9387946128845215 -1.949622631072998 7.000
7.584967136383057 10.759634971618652 2.788403034210205 12.000
7.618712902069092 16.36333465576172 4.484992027282715 2.000
7.523608684539795 10.692384719848633 1.8325618505477905 10.000
7.521921634674072 16.125991821289062 3.128211259841919 4.000
7.484437942504883 10.648548126220703 0.9054405093193054 20.000
7.453436374664307 15.950069427490234 1.8467565774917603 10.000
7.460878372192383 10.61504077911377 0.0 24.000
7.44357967376709 15.914494514465332 0.6123116612434387 6.000
7.439349174499512 10.576594352722168 -0.8995260000228882 27.000
7.46430778503418 15.951568603515625 -0.6168625950813293 4.000
4.467838287353516 6.340760231018066 -1.082506775856018 2.000
4.718619346618652 10.082138061523438 -1.162402868270874 4.000
4.3203444480896 6.115867614746094 -1.585587978363037 1.000
4.813366889953613 10.284649848937988 -1.9960857629776 7.000
4.07322359085083 5.745265960693359 -2.0081732273101807 6.000
3.3548028469085693 7.173180103302002 -1.964239478111267 6.000
7.4893646240234375 12.428210258483887 3.336595296859741 20.000
6.733672142028809 17.676319122314453 5.052028179168701 7.000
7.4804205894470215 12.413349151611328 2.2847628593444824 18.000
7.538576602935791 19.687524795532227 4.087271213531494 9.000
7.477845668792725 12.413952827453613 1.264847755432129 22.000
7.510005950927734 19.521053314208984 2.5601818561553955 6.000
7.486734390258789 12.423799514770508 0.252579927444458 29.000
7.4698381423950195 19.3762264251709 1.0864944458007812 12.000
7.478440761566162 12.405141830444336 -0.7598232626914978 26.000
7.539662837982178 19.537145614624023 -0.36492979526519775 3.000
5.176090240478516 8.576841354370117 -1.2239586114883423 118.000
5.55433464050293 14.396825790405273 -1.3443048000335693 8.000
5.394124507904053 8.930959701538086 -2.01751446723938 7.000
4.505177974700928 11.693202018737793 -1.9814682006835938 7.000
3.8550450801849365 6.373600959777832 -1.9851421117782593 7.000
3.0450973510742188 7.928213596343994 -1.949622631072998 8.000
7.584230422973633 10.679272651672363 2.7743804454803467 12.000
7.635560035705566 16.25100326538086 4.461437225341797 1.000
7.525077819824219 10.615575790405273 1.8238635063171387 10.000
7.528895378112793 15.9949312210083 3.107827663421631 4.000
7.489841938018799 10.577589988708496 0.9016134738922119 20.000
7.452877998352051 15.80476188659668 1.8329066038131714 10.000
7.461752414703369 10.53793716430664 0.0 24.000
7.446843147277832 15.777693748474121 0.6080363988876343 5.000
7.435831069946289 10.493598937988281 -0.8946552872657776 21.000
7.430354118347168 15.735629081726074 -0.6094970703125 6.000
4.47416877746582 6.302927494049072 -1.0786890983581543 2.000
4.696468353271484 9.944189071655273 -1.1483384370803833 4.000
4.36578893661499 6.1346049308776855 -1.5944314002990723 1.000
4.854492664337158 10.27891731262207 -1.9982563257217407 7.000
4.1016411781311035 5.742741107940674 -2.01230525970459 6.000
3.379821538925171 7.161426067352295 -1.964239478111267 6.000
7.547880172729492 12.42697525024414 3.3433334827423096 19.000
6.747645854949951 17.52873420715332 5.016486644744873 7.000
7.546784400939941 12.425148010253906 2.2917869091033936 20.000
7.59132194519043 19.619892120361328 4.07869291305542 5.000
7.52501106262207 12.394160270690918 1.2655013799667358 19.000
7.512506484985352 19.325868606567383 2.5379722118377686 6.000
7.509289741516113 12.363409042358398 0.25188183784484863 23.000
7.466785430908203 19.168563842773438 1.0762888193130493 12.000
7.478908538818359 12.30855941772461 -0.7554911971092224 22.000
7.52159309387207 19.289451599121094 -0.3607848286628723 2.000
5.221476078033447 8.584157943725586 -1.227609395980835 193.000
5.581958293914795 14.319332122802734 -1.3388683795928955 26.000
5.416330814361572 8.897403717041016 -2.01418137550354 6.000
4.547757625579834 11.6820068359375 -1.9822511672973633 8.000
3.881042242050171 6.36629056930542 -1.9870821237564087 6.000
3.0771546363830566 7.928895950317383 -1.9524304866790771 7.000
7.585873126983643 10.603023529052734 2.761396646499634 10.000
7.648600101470947 16.132179260253906 4.436070919036865 2.000
7.521784782409668 10.532846450805664 1.8141213655471802 12.000
7.5086445808410645 15.808417320251465 3.07660174369812 4.000
7.486148357391357 10.494544982910156 0.8967427015304565 20.000
7.447595119476318 15.658709526062012 1.8187952041625977 13.000
7.465085029602051 10.46502685546875 0.0 25.000
7.439578056335449 15.620765686035156 0.6029760241508484 9.000
7.437623500823975 10.41887378692627 -0.8904802799224854 21.000
7.415398120880127 15.562980651855469 -0.6037975549697876 10.000
4.476314067840576 6.261882305145264 -1.0741771459579468 3.000
4.698004245758057 9.858146667480469 -1.1402643918991089 4.000
4.3429741859436035 6.057745933532715 -1.5783051252365112 1.000
4.86738395690918 10.218302726745605 -1.9895739555358887 6.000
4.117447853088379 5.722538948059082 -2.0102391242980957 6.000
3.405635118484497 7.154560565948486 -1.965448260307312 6.000
7.587395191192627 12.394319534301758 3.341649055480957 17.000
6.779043674468994 17.428539276123047 4.994515895843506 7.000
7.559584617614746 12.353718757629395 2.2832019329071045 15.000
7.596354007720947 19.43097496032715 4.044854164123535 3.000
7.523177623748779 12.29903507232666 1.2583110332489014 14.000
6.987510681152344 17.799333572387695 2.3402161598205566 6.000
7.502798557281494 12.256114959716797 0.25022387504577637 18.000
7.463634014129639 18.974084854125977 1.0667375326156616 10.000
7.477488994598389 12.209997177124023 -0.7510278224945068 17.000
7.489411354064941 19.020172119140625 -0.3562035858631134 2.000
5.255101203918457 8.5752592086792 -1.2288264036178589 202.000
6.171794414520264 15.679778099060059 -1.4682538509368896 17.000
5.471475124359131 8.921231269836426 -2.023704767227173 2.000
4.590984344482422 11.678353309631348 -1.9842088222503662 7.000
3.9033970832824707 6.355443954467773 -1.9877287149429321 7.000
3.1025431156158447 7.916378498077393 -1.9518688917160034 7.000
7.585238456726074 10.528217315673828 2.748412847518921 10.000
7.644508361816406 15.986349105834961 4.402853488922119 3.000
7.520519733428955 10.457609176635742 1.8054231405258179 10.000
7.484457492828369 15.623549461364746 3.0453763008117676 9.000
7.484516620635986 10.419036865234375 0.8923938274383545 20.000
7.453812599182129 15.531742095947266 1.8070359230041504 10.000
7.461808204650879 10.387435913085938 0.0 20.000
7.4329352378845215 15.474386215209961 0.5982645750045776 9.000
7.436071395874023 10.340218544006348 -0.8859574794769287 21.000
7.417198181152344 15.434710502624512 -0.5997640490531921 10.000
4.473530292510986 6.21207857131958 -1.0682770013809204 4.000
4.701152324676514 9.77669906616211 -1.1327111721038818 5.000
4.64288854598999 9.659762382507324 -1.8836486339569092 2.000
4.143044471740723 5.715911388397217 -2.012993812561035 6.000
3.43163800239563 7.144815921783447 -1.966052532196045 6.000
7.592231750488281 12.305564880371094 3.324803113937378 13.000
6.824832439422607 17.36655616760254 4.983530044555664 7.000
7.559877395629883 12.257902145385742 2.27032470703125 12.000
7.596556186676025 19.23313331604004 4.009109973907471 2.000
7.540745735168457 12.226865768432617 1.2537353038787842 14.000
7.038627624511719 17.74715232849121 2.3365650177001953 8.000
7.5035271644592285 12.161782264709473 0.24882766604423523 17.000
7.463063716888428 18.77027130126953 1.0567936897277832 12.000
7.47153902053833 12.105220794677734 -0.7461706399917603 18.000
7.098087310791016 17.833599090576172 -0.3344317376613617 5.000
5.2943243980407715 8.568604469299316 -1.23065185546875 139.000
6.244863033294678 15.696393013000488 -1.4719505310058594 29.000
4.632631301879883 11.66455078125 -1.984600305557251 8.000
3.9228484630584717 6.334935188293457 -1.9857888221740723 7.000
3.1351211071014404 7.914015769958496 -1.9541150331497192 7.000
7.584965229034424 10.446928024291992 2.7343902587890625 13.000
7.578639507293701 15.700409889221191 4.3315863609313965 5.000
7.522463321685791 10.379870414733887 1.796724796295166 12.000
7.490234375 15.489611625671387 3.0245590209960938 9.000
7.491929531097412 10.349122047424316 0.8887407779693604 20.000
7.459755897521973 15.399145126342773 1.7947537899017334 12.000
7.467563629150391 10.315475463867188 0.0 19.000
7.438382625579834 15.341370582580566 0.5941638946533203 9.000
7.435525894165039 10.263718605041504 -0.8816086053848267 21.000
7.4203009605407715 15.297263145446777 -0.5954674482345581 12.000
4.502089977264404 6.203652381896973 -1.0696653127670288 3.000
4.696194171905518 9.679688453674316 -1.1233348846435547 4.000
4.623474597930908 9.529701232910156 -1.8615083694458008 4.000
4.160135269165039 5.697535037994385 -2.0116164684295654 6.000
3.4599177837371826 7.136557102203369 -1.9672613143920898 6.000
7.593968868255615 12.21279239654541 3.3068342208862305 13.000
6.721541404724121 16.92957878112793 4.864628314971924 8.000
7.552587985992432 12.146236419677734 2.25471568107605 10.000
7.530022621154785 18.87139892578125 3.9390506744384766 2.000
7.526836395263672 12.109522819519043 1.24436616897583 14.000
7.055645942687988 17.601457595825195 2.320744752883911 8.000
7.503689765930176 12.067593574523926 0.24743147194385529 18.000
7.144457817077637 17.787227630615234 1.002756953239441 13.000
7.47286319732666 12.013355255126953 -0.7421010732650757 18.000
7.135132312774658 17.7460880279541 -0.3332536816596985 10.000
5.332073211669922 8.562708854675293 -1.2324773073196411 196.000
6.294046878814697 15.66063404083252 -1.4706459045410156 30.000
4.344572067260742 6.972042560577393 -1.587060570716858 2.000
4.678109645843506 11.654369354248047 -1.9857747554779053 7.000
3.9500539302825928 6.329397201538086 -1.9883753061294556 7.000
3.1618235111236572 7.90076208114624 -1.953553557395935 7.000
7.586723327636719 10.373026847839355 2.721925973892212 10.000
7.569680690765381 15.542986869812012 4.295348644256592 9.000
7.523599624633789 10.305571556091309 1.7883743047714233 10.000
7.489212989807129 15.350512504577637 3.0024406909942627 9.000
7.489785671234131 10.270526885986328 0.8842178583145142 21.000
7.4567060470581055 15.256848335266113 1.7811648845672607 12.000
7.466683387756348 10.238859176635742 0.0 19.000
7.435909748077393 15.20084285736084 0.5897141695022583 10.000
7.433065891265869 10.185335159301758 -0.8770856857299805 22.000
7.428635597229004 15.179254531860352 -0.5918723940849304 12.000
4.5836687088012695 6.269811153411865 -1.0838950872421265 4.000
4.687338829040527 9.576133728027344 -1.1131771802902222 4.000
4.622087478637695 9.442734718322754 -1.8476165533065796 16.000
4.18284797668457 5.686849117279053 -2.012993812561035 6.000
3.4837424755096436 7.122256278991699 -1.966657042503357 6.000
7.587386608123779 12.107772827148438 3.285496234893799 13.000
6.696142196655273 16.695293426513672 4.803884983062744 21.000
7.558218479156494 12.061214447021484 2.2437894344329834 12.000
7.210727214813232 17.888904571533203 3.7388811111450195 8.000
7.526745796203613 12.015641212463379 1.2373936176300049 14.000
7.075158596038818 17.473207473754883 2.307054042816162 8.000
7.499303340911865 11.96720027923584 0.24590440094470978 17.000
7.144590377807617 17.609477996826172 0.9941214323043823 12.000
7.4723100662231445 11.919511795043945 -0.7379002571105957 19.000
7.1349945068359375 17.56821060180664 -0.3303740322589874 9.000
5.371165752410889 8.558755874633789 -1.2346069812774658 195.000
6.327142238616943 15.585487365722656 -1.4656445980072021 17.000
4.325796604156494 6.888256549835205 -1.5713472366333008 3.000
4.721543788909912 11.644834518432617 -1.9869494438171387 8.000
3.9695510864257812 6.3114824295043945 -1.9870821237564087 6.000
3.1921184062957764 7.896453857421875 -1.9552381038665771 7.000
7.583703517913818 10.293335914611816 2.7079033851623535 12.000
7.57682991027832 15.420661926269531 4.26877498626709 9.000
7.521376132965088 10.227404594421387 1.7793281078338623 10.000
7.4916605949401855 15.22044849395752 2.982057571411133 9.000
7.494570255279541 10.202122688293457 0.88056480884552 20.000
7.458907604217529 15.133903503417969 1.7696669101715088 12.000
7.4609174728393555 10.156332969665527 0.0 20.000
7.44470739364624 15.085168838500977 0.5862242579460144 12.000
7.4316277503967285 10.109105110168457 -0.8727368116378784 21.000
7.419649600982666 15.027767181396484 -0.5869620442390442 13.000
4.666125774383545 6.338283538818359 -1.098471999168396 4.000
4.6954264640808105 9.50843334197998 -1.1071867942810059 4.000
4.36172342300415 5.908029556274414 -1.5548957586288452 1.000
4.64901876449585 9.418523788452148 -1.845880150794983 3.000
4.196945667266846 5.664492130279541 -2.0102391242980957 6.000
3.512704372406006 7.121544361114502 -1.9696788787841797 7.000
7.584068775177002 12.009127616882324 3.265842914581299 12.000
6.918410778045654 17.076993942260742 4.920848369598389 6.000
7.553347110748291 11.965093612670898 2.2305216789245605 12.000
7.188962459564209 17.656768798828125 3.6955111026763916 9.000
7.527998924255371 11.929540634155273 1.2310749292373657 13.000
7.124617576599121 17.42897605895996 2.3043158054351807 17.000
7.504987716674805 11.883890151977539 0.24472635984420776 17.000
7.153769493103027 17.465543746948242 0.9873178005218506 15.000
7.472527980804443 11.82793140411377 -0.7338306903839111 19.000
7.15435791015625 17.44961929321289 -0.328585147857666 15.000
5.411455154418945 8.559771537780762 -1.2373450994491577 165.000
6.144718647003174 14.992841720581055 -1.4117157459259033 6.000
4.326302528381348 6.838619232177734 -1.563252329826355 6.000
4.762002468109131 11.633685111999512 -1.9877325296401978 8.000
3.9956307411193848 6.3064422607421875 -1.9896684885025024 6.000
3.22196364402771 7.8948493003845215 -1.957484245300293 7.000
7.579895496368408 10.217079162597656 2.6944000720977783 10.000
7.569779396057129 15.278061866760254 4.236161231994629 9.000
7.5154523849487305 10.148702621459961 1.7699339389801025 10.000
7.4862799644470215 15.083039283752441 2.9599392414093018 9.000
7.489782810211182 10.125097274780273 0.8760420083999634 20.000
7.459676742553711 15.003133773803711 1.7573847770690918 13.000
7.4618330001831055 10.087328910827637 0.0 20.000
7.434597015380859 14.939604759216309 0.5815128684043884 13.000
7.434203624725342 10.039020538330078 -0.8689097762107849 20.000
7.419346809387207 14.902427673339844 -0.5830162167549133 10.000
4.652803421020508 6.2742486000061035 -1.0901423692703247 3.000
4.690907001495361 9.416309356689453 -1.098331332206726 5.000
4.5820393562316895 9.201665878295898 -1.8063751459121704 3.000
4.223886013031006 5.659433364868164 -2.0136826038360596 7.000
3.5397021770477295 7.113583564758301 -1.9708876609802246 6.000
7.585387706756592 11.91887378692627 3.2484354972839355 12.000
7.044705390930176 17.215925216674805 4.968021392822266 5.000
7.556622505187988 11.8782377243042 2.219205141067505 12.000
7.194581508636475 17.4953670501709 3.66691517829895 9.000
7.526214599609375 11.830429077148438 1.2236666679382324 14.000
7.1958231925964355 17.42923355102539 2.3076624870300293 15.000
7.5021281242370605 11.78803539276123 0.24328653514385223 17.000
7.21296501159668 17.427669525146484 0.9866635203361511 21.000
7.468174457550049 11.730178833007812 -0.7293673157691956 19.000
7.223046779632568 17.434829711914062 -0.32880333065986633 18.000
5.449461460113525 8.550341606140137 -1.2388663291931152 202.000
6.138682842254639 14.822937965393066 -1.3977986574172974 3.000
4.338137149810791 6.802027702331543 -1.5584907531738281 7.000
4.810122489929199 11.635248184204102 -1.9908645153045654 7.000
4.0213189125061035 6.295825958251953 -1.9909617900848389 6.000
3.2555155754089355 7.894249439239502 -1.960291862487793 7.000
7.57774019241333 10.136359214782715 2.680377721786499 10.000
7.572574138641357 15.143888473510742 4.206567287445068 9.000
7.522974014282227 10.081415176391602 1.7629752159118652 10.000
7.485288619995117 14.94322395324707 2.9378209114074707 9.000
7.494036674499512 10.053597450256348 0.8722149133682251 21.000
7.463333606719971 14.87346363067627 1.7453640699386597 12.000
7.4628801345825195 10.011817932128906 0.0 20.000
7.445583343505859 14.825176239013672 0.5781101584434509 14.000
7.439364433288574 9.973038673400879 -0.8654306530952454 21.000
7.426816940307617 14.781365394592285 -0.579333484172821 12.000
4.585301399230957 6.136223793029785 -1.0689711570739746 3.000
4.69473123550415 9.342109680175781 -1.091559648513794 5.000
4.610208511352539 9.173808097839355 -1.8042044639587402 4.000
4.246506214141846 5.648495197296143 -2.0150599479675293 7.000
3.5690150260925293 7.107065677642822 -1.9727007150650024 7.000
7.590115547180176 11.834909439086914 3.232712745666504 10.000
7.12227201461792 17.233640670776367 4.98029899597168 5.000
7.558774471282959 11.786029815673828 2.20710825920105 10.000
7.2358527183532715 17.42254638671875 3.656906843185425 10.000
7.531166076660156 11.747480392456055 1.2177835702896118 13.000
7.26347541809082 17.411903381347656 2.3088793754577637 14.000
7.504090309143066 11.700762748718262 0.24202123284339905 19.000
7.279528617858887 17.416210174560547 0.9874486327171326 19.000
7.468623638153076 11.641005516052246 -0.7254290580749512 18.000
7.286754131317139 17.416427612304688 -0.3289342224597931 19.000
5.4900054931640625 8.547968864440918 -1.2413002252578735 196.000
4.3605265617370605 6.784778118133545 -1.5580143928527832 8.000
4.849883079528809 11.61070442199707 -1.9896900653839111 8.000
4.0471930503845215 6.287841320037842 -1.9929016828536987 6.000
3.2849225997924805 7.887336730957031 -1.9614149332046509 7.000
7.577755451202393 10.062973022460938 2.6679131984710693 12.000
7.567497730255127 15.002555847167969 4.174557209014893 8.000
7.519425868988037 10.003654479980469 1.7539290189743042 10.000
7.488559246063232 14.820306777954102 2.91873836517334 9.000
7.491631507873535 9.977531433105469 0.867866039276123 21.000
7.468058109283447 14.754144668579102 1.7343884706497192 14.000
7.467747688293457 9.945734024047852 0.0 21.000
7.452132701873779 14.709936141967773 0.5746201872825623 16.000
7.433664321899414 9.893190383911133 -0.8607338666915894 20.000
7.435457229614258 14.670656204223633 -0.5760014057159424 26.000
4.506865501403809 5.987704277038574 -1.0457175970077515 2.000
4.698094844818115 9.267997741699219 -1.0847877264022827 5.000
4.623286724090576 9.120325088500977 -1.7968244552612305 4.000
4.266197204589844 5.63363790512085 -2.0150599479675293 7.000
3.5927062034606934 7.092400550842285 -1.9720964431762695 6.000
7.5864152908325195 11.73878288269043 3.213620662689209 12.000
7.200977802276611 17.253252029418945 4.993223190307617 6.000
7.559651851654053 11.697360038757324 2.195401430130005 10.000
7.3061113357543945 17.419816970825195 3.661673069000244 10.000
7.527520656585693 11.652091026306152 1.2105932235717773 15.000
7.334801197052002 17.411602020263672 2.3122260570526123 15.000
7.497392654418945 11.601025581359863 0.24049414694309235 20.000
7.3305745124816895 17.36768913269043 0.9861401915550232 19.000
7.469897270202637 11.554068565368652 -0.721622109413147 18.000
7.341670989990234 17.3770694732666 -0.3286724388599396 18.000
5.530598163604736 8.545416831970215 -1.2437341213226318 186.000
4.766293525695801 11.282790184020996 -1.0663976669311523 1.000
4.350820064544678 6.718023300170898 -1.5461102724075317 7.000
4.89805269241333 11.611906051635742 -1.9928221702575684 7.000
4.065173625946045 6.267598628997803 -1.9909617900848389 7.000
3.312434673309326 7.875822067260742 -1.9614149332046509 7.000
7.578829288482666 9.991659164428711 2.655968189239502 12.000
7.56922721862793 14.876585006713867 4.146775245666504 8.000
7.5229034423828125 9.935908317565918 1.7466224431991577 12.000
7.485476016998291 14.68658447265625 2.8974876403808594 9.000
7.496313571929932 9.91154670715332 0.8643869161605835 24.000
7.466390609741211 14.62390422821045 1.7221064567565918 13.000
7.463192939758301 9.867775917053223 0.0 20.000
7.488658428192139 14.65491008758545 0.5734859108924866 18.000
7.4365315437316895 9.825430870056152 -0.8570808172225952 22.000
7.486621856689453 14.644612312316895 -0.5760014057159424 6.000
4.509776592254639 5.94827127456665 -1.0415527820587158 2.000
4.69873571395874 9.189550399780273 -1.0774950981140137 5.000
4.658454895019531 9.11070728302002 -1.7981268167495728 4.000
4.293129920959473 5.628261089324951 -2.018503189086914 7.000
3.6240603923797607 7.092779159545898 -1.9757226705551147 6.000
7.5874552726745605 11.650993347167969 3.196774959564209 10.000
7.2517852783203125 17.20575523376465 4.986761093139648 7.000
7.560003757476807 11.608826637268066 2.183694839477539 10.000
7.37835168838501 17.421327590942383 3.6673920154571533 12.000
7.528738498687744 11.565220832824707 1.2042745351791382 16.000
7.373206615447998 17.33336639404297 2.3052284717559814 10.000
7.499641418457031 11.516139030456543 0.23927249014377594 23.000
7.372567176818848 17.29835319519043 0.983654260635376 20.000
7.466566562652588 11.460990905761719 -0.717421293258667 20.000
7.37973690032959 17.298450469970703 -0.3276689052581787 19.000
5.569884777069092 8.540608406066895 -1.245863914489746 190.000
4.814435958862305 11.28670597076416 -1.0683547258377075 1.000
4.35143518447876 6.667860507965088 -1.538015604019165 8.000
4.938555717468262 11.594738960266113 -1.9928221702575684 8.000
4.090991973876953 6.259433269500732 -1.9929016828536987 7.000
3.341808319091797 7.868697643280029 -1.9625380039215088 7.000
7.574796676635742 9.917898178100586 2.642984390258789 12.000
7.557633399963379 14.73267650604248 4.113557815551758 8.000
7.519772052764893 9.863666534423828 1.7382720708847046 10.000
7.486886024475098 14.569701194763184 2.879272699356079 9.000
7.49437141418457 9.841012001037598 0.8603859543800354 26.000
7.463648796081543 14.499579429626465 1.7103469371795654 13.000
