# .PCD v.7 - Point Cloud Data file format
VERSION .7
FIELDS x y z intensity
SIZE 4 4 4 4
TYPE F F F F
COUNT 1 1 1 1
WIDTH 759
HEIGHT 1
VIEWPOINT 0 0 0 1 0 0 0
POINTS 759
DATA ascii
1.945111632347107 0.6487853527069092 19.0804443359375 49.000
8.30955696105957 2.978775978088379 34.023475646972656 5.000
5.467923164367676 1.988178014755249 15.876043319702148 49.000
4.420283317565918 1.6212283372879028 9.798887252807617 11.000
3.449575424194336 1.2713545560836792 6.08364200592041 13.000
2.9585819244384766 1.0944976806640625 4.251875400543213 18.000
2.696669101715088 0.9997401833534241 3.196108818054199 27.000
2.575533866882324 0.9640405774116516 2.782256841659546 26.000
2.3937180042266846 0.8974084258079529 2.1436822414398193 28.000
2.2569785118103027 0.8470379114151001 1.6651301383972168 31.000
2.1618363857269287 0.812186062335968 1.2954083681106567 34.000
2.087921380996704 0.7852413654327393 0.9895796775817871 37.000
2.020563840866089 0.760706901550293 0.7245545983314514 34.000
1.9627588987350464 0.7397217750549316 0.48970091342926025 34.000
1.905498743057251 0.7188934683799744 0.27578410506248474 28.000
2.4697015285491943 0.9209854602813721 2.4287710189819336 30.000
2.323565721511841 0.8678678870201111 1.8895978927612305 34.000
2.2143895626068115 0.8279647827148438 1.474852442741394 31.000
2.1305601596832275 0.797461748123169 1.139100193977356 37.000
2.0567357540130615 0.7706409692764282 0.8535711765289307 37.000
1.9981648921966553 0.7490878701210022 0.6054004430770874 35.000
1.9239604473114014 0.7220278978347778 0.3788301646709442 35.000
1.8939863443374634 0.7111509442329407 0.1752854287624359 20.000
2.8107361793518066 0.9704201221466064 18.902963638305664 97.000
5.133673191070557 1.8081624507904053 26.190725326538086 18.000
8.082520484924316 2.9053144454956055 27.504545211791992 7.000
5.575953006744385 2.0252268314361572 14.03531551361084 9.000
3.8245396614074707 1.3974329233169556 7.5293707847595215 11.000
3.157526731491089 1.1587120294570923 5.012479305267334 13.000
2.8021223545074463 1.0316123962402344 3.6516366004943848 17.000
1.945845603942871 0.6414914131164551 19.065528869628906 48.000
8.414680480957031 2.983351945877075 34.41062545776367 6.000
5.484572887420654 1.9725830554962158 15.90419864654541 39.000
4.409543991088867 1.5998493432998657 9.762877464294434 11.000
3.4441909790039062 1.2557324171066284 6.066578388214111 14.000
2.9567246437072754 1.0820924043655396 4.243895530700684 17.000
2.6937766075134277 0.9879865050315857 3.188758611679077 26.000
2.572194814682007 0.9525675773620605 2.775247812271118 27.000
2.3895373344421387 0.8863402009010315 2.1374053955078125 28.000
2.2599213123321533 0.8391544222831726 1.6651301383972168 31.000
2.164658546447754 0.8046348690986633 1.2954083681106567 34.000
2.0863046646118164 0.7763317823410034 0.9877066612243652 36.000
2.018711805343628 0.7519748210906982 0.7231446504592896 34.000
1.9607264995574951 0.7311496734619141 0.4887683093547821 34.000
1.90333092212677 0.7104961276054382 0.27533701062202454 28.000
2.469398260116577 0.9110665917396545 2.425445556640625 30.000
2.322789192199707 0.8583508133888245 1.8866546154022217 34.000
2.2132232189178467 0.8187345266342163 1.4723193645477295 31.000
2.129074811935425 0.7884437441825867 1.1370019912719727 36.000
2.054985761642456 0.76181560754776 0.8519276976585388 36.000
1.9962103366851807 0.740418016910553 0.6042280793190002 33.000
1.9264689683914185 0.7153076529502869 0.3788301646709442 33.000
1.8964571952819824 0.7045353651046753 0.1752854287624359 19.000
2.8141064643859863 0.960602879524231 18.902963638305664 96.000
5.14572286605835 1.7922407388687134 26.2200984954834 17.000
8.189658164978027 2.9115827083587646 27.833812713623047 7.000
5.560925483703613 1.9978249073028564 13.980085372924805 8.000
3.8181324005126953 1.3800041675567627 7.507424831390381 11.000
3.156261920928955 1.1457628011703491 5.004213333129883 13.000
2.799682855606079 1.0196313858032227 3.6439619064331055 17.000
1.9470592737197876 0.6343652009963989 19.055585861206055 45.000
5.510934829711914 1.960365653038025 15.960512161254883 31.000
4.398709774017334 1.5785653591156006 9.72686767578125 11.000
3.441193103790283 1.241047978401184 6.0537800788879395 14.000
2.954817533493042 1.0697137117385864 4.235915660858154 17.000
2.6940219402313232 0.9774211645126343 3.1850833892822266 26.000
2.572155714035034 0.9423564076423645 2.7717432975769043 27.000
2.388962745666504 0.8766528964042664 2.1342670917510986 29.000
2.2589118480682373 0.8298189043998718 1.662388563156128 29.000
2.1632962226867676 0.7955451011657715 1.2930896282196045 34.000
2.0890018939971924 0.7690444588661194 0.9877066612243652 35.000
2.021324396133423 0.7449236512184143 0.7231446504592896 34.000
1.9632667303085327 0.7243010401725769 0.4887683093547821 34.000
1.905799388885498 0.7038478851318359 0.27533701062202454 30.000
2.465548515319824 0.8998810648918152 2.418794631958008 29.000
2.3257710933685303 0.8502374887466431 1.8866546154022217 35.000
2.212019443511963 0.8095225095748901 1.4697860479354858 31.000
2.1275525093078613 0.7794458866119385 1.1349040269851685 37.000
2.0576324462890625 0.7546377778053284 0.8519276976585388 37.000
1.9942193031311035 0.7317709922790527 0.6030557155609131 33.000
1.9243059158325195 0.7068712115287781 0.3781394958496094 33.000
1.89421546459198 0.6961877346038818 0.17508389055728912 19.000
2.8174426555633545 0.950774073600769 18.902963638305664 96.000
5.151947498321533 1.7742679119110107 26.2200984954834 16.000
8.265958786010742 2.9062466621398926 28.058095932006836 7.000
5.545774459838867 1.9705528020858765 13.92485523223877 7.000
3.811650514602661 1.3626372814178467 7.485479831695557 11.000
3.152296304702759 1.1318856477737427 4.991814136505127 13.000
2.797194004058838 1.00767982006073 3.636286735534668 16.000
1.9482468366622925 0.6272385120391846 19.045642852783203 45.000
5.53239631652832 1.9462709426879883 16.00274658203125 24.000
4.387780666351318 1.557376503944397 9.690857887268066 11.000
3.435678482055664 1.225523829460144 6.036716461181641 14.000
2.952859401702881 1.0573614835739136 4.227935314178467 17.000
2.691035509109497 0.9657213091850281 3.1777329444885254 27.000
2.568723678588867 0.9309421181678772 2.7647342681884766 26.000
2.3883492946624756 0.8669803738594055 2.1311285495758057 29.000
2.257864475250244 0.8205007314682007 1.6596472263336182 29.000
2.166060209274292 0.7879888415336609 1.2930896282196045 35.000
2.087317705154419 0.7601614594459534 0.9858335852622986 35.000
2.0194051265716553 0.7362202405929565 0.7217345833778381 35.000
1.9611684083938599 0.7157593369483948 0.48783567547798157 34.000
1.9035673141479492 0.6954821944236755 0.2748899459838867 28.000
2.465162515640259 0.8900014758110046 2.415469169616699 29.000
2.3249239921569824 0.8407394289970398 1.883711576461792 35.000
2.21077823638916 0.80032879114151 1.4672529697418213 32.000
2.125993251800537 0.7704682946205139 1.1328059434890747 36.000
2.055814743041992 0.7458401322364807 0.8502841591835022 37.000
1.9967615604400635 0.7248054146766663 0.6030557155609131 35.000
1.926761507987976 0.7001498341560364 0.3781394958496094 35.000
1.8919390439987183 0.6878644227981567 0.17488236725330353 20.000
2.820744276046753 0.9409334659576416 18.902963638305664 96.000
5.168712615966797 1.7598828077316284 26.27394676208496 14.000
5.707155704498291 1.9842987060546875 19.363540649414062 6.000
5.528657913208008 1.942763090133667 13.865022659301758 7.000
3.8073511123657227 1.3461307287216187 7.467923164367676 12.000
3.1509246826171875 1.1189918518066406 4.983548641204834 13.000
2.797675371170044 0.9968340396881104 3.6324493885040283 16.000
1.9494084119796753 0.6201111078262329 19.03569984436035 46.000
5.558714389801025 1.933750867843628 16.05906105041504 11.000
4.378810882568359 1.5370041131973267 9.65934944152832 10.000
3.4325568675994873 1.2109209299087524 6.023918628692627 13.000
2.9480113983154297 1.0440300703048706 4.215965270996094 17.000
2.691195249557495 0.9551880955696106 3.174057960510254 27.000
2.568600654602051 0.9207665324211121 2.7612295150756836 26.000
2.3840341567993164 0.8560077548027039 2.1248514652252197 30.000
2.256779909133911 0.811199963092804 1.6569056510925293 32.000
2.1646294593811035 0.7789232730865479 1.2907707691192627 34.000
2.0899581909179688 0.7528706192970276 0.9858335852622986 36.000
2.021962881088257 0.7291666269302368 0.7217345833778381 36.000
1.9590345621109009 0.7072412967681885 0.4869030714035034 33.000
1.905983328819275 0.6888332962989807 0.2748899459838867 28.000
2.464738130569458 0.8801354169845581 2.4121434688568115 30.000
2.3240387439727783 0.8312576413154602 1.8807682991027832 35.000
2.2135584354400635 0.7926068902015686 1.4672529697418213 32.000
2.1286697387695312 0.7630424499511719 1.1328059434890747 35.000
2.058405876159668 0.7386595606803894 0.8502841591835022 37.000
1.9947048425674438 0.7161886096000671 0.6018834710121155 35.000
1.924533486366272 0.691744863986969 0.37744882702827454 34.000
1.8943284749984741 0.681256115436554 0.17488236725330353 19.000
2.8240113258361816 0.9310815930366516 18.902963638305664 97.000
5.169999122619629 1.740206003189087 26.249469757080078 10.000
5.718282699584961 1.9658206701278687 19.377857208251953 15.000
5.522486686706543 1.9189640283584595 13.832804679870605 7.000
3.802983522415161 1.3296706676483154 7.450366973876953 12.000
3.146846294403076 1.1051892042160034 4.971149921417236 13.000
2.795091390609741 0.9849317669868469 3.624774217605591 17.000
1.9515610933303833 0.6133026480674744 19.03569984436035 47.000
5.591540336608887 1.9233155250549316 16.134145736694336 6.000
4.369753837585449 1.5167136192321777 9.627840995788574 10.000
3.426912784576416 1.1954957246780396 6.006855010986328 13.000
2.9459497928619385 1.0317413806915283 4.207984924316406 17.000
2.688115119934082 0.9435427784919739 3.1667075157165527 27.000
2.5684375762939453 0.9106032848358154 2.757725238800049 26.000
2.3833398818969727 0.8463781476020813 2.121713161468506 30.000
2.255657911300659 0.801916778087616 1.65416419506073 32.000
2.1631617546081543 0.7698773145675659 1.2884520292282104 34.000
2.0882065296173096 0.7440149188041687 0.9839606285095215 36.000
2.019977569580078 0.7204927206039429 0.7203245759010315 34.000
1.961491346359253 0.7003987431526184 0.4869030714035034 33.000
1.903686761856079 0.6804996728897095 0.2744428515434265 30.000
2.4642746448516846 0.8702832460403442 2.408818244934082 30.000
2.323115587234497 0.8217922449111938 1.8778252601623535 35.000
2.2122480869293213 0.7834363579750061 1.4647197723388672 32.000
2.127042293548584 0.7540909647941589 1.1307079792022705 35.000
2.05652117729187 0.7298904061317444 0.8486406207084656 36.000
1.9926120042800903 0.7075948119163513 0.6007111072540283 35.000
1.92227041721344 0.6833639740943909 0.3767581284046173 34.000
1.8919880390167236 0.6729652881622314 0.17468082904815674 19.000
2.8272440433502197 0.92121821641922 18.902963638305664 95.000
5.198263645172119 1.7295409440994263 26.362060546875 7.000
5.725109577178955 1.9458482265472412 19.377857208251953 25.000
5.514370918273926 1.8945971727371216 13.795984268188477 7.000
3.7985472679138184 1.3132575750350952 7.432810306549072 11.000
3.142709732055664 1.091428518295288 4.9587507247924805 13.000
2.7924587726593018 0.9730597734451294 3.6170990467071533 16.000
1.9531809091567993 0.6063287854194641 19.030729293823242 50.000
5.658670425415039 1.9243412017822266 16.307777404785156 4.000
4.360607624053955 1.4965046644210815 9.596331596374512 11.000
3.421203136444092 1.1801248788833618 5.989791393280029 13.000
2.940991163253784 1.018493890762329 4.196015357971191 16.000
2.6881895065307617 0.9330421090126038 3.163032293319702 28.000
2.568234920501709 0.9004523158073425 2.754220485687256 25.000
2.3826072216033936 0.8367639780044556 2.118574619293213 31.000
2.2544987201690674 0.7926512956619263 1.6514227390289307 31.000
2.1658358573913574 0.7623217105865479 1.2884520292282104 35.000
2.0907909870147705 0.7367212176322937 0.9839606285095215 35.000
2.0224802494049072 0.7134373188018799 0.7203245759010315 34.000
1.9592922925949097 0.6919117569923401 0.4859704375267029 35.000
1.906050443649292 0.6738503575325012 0.2744428515434265 29.000
2.4637722969055176 0.8604450225830078 2.4054925441741943 29.000
2.3221545219421387 0.812343418598175 1.8748819828033447 35.000
2.2109010219573975 0.7742846608161926 1.4621866941452026 32.000
2.1253790855407715 0.7451600432395935 1.1286098957061768 36.000
2.059056520462036 0.7227073311805725 0.8486406207084656 36.000
1.9950697422027588 0.7006350159645081 0.6007111072540283 35.000
1.924644112586975 0.676649808883667 0.3767581284046173 35.000
1.8896127939224243 0.664699137210846 0.17447930574417114 21.000
2.8304426670074463 0.9113436937332153 18.902963638305664 94.000
4.234097003936768 1.392408847808838 21.452146530151367 22.000
5.73186731338501 1.9258520603179932 19.377857208251953 25.000
5.471004486083984 1.858372688293457 13.671716690063477 6.000
3.79404354095459 1.2968920469284058 7.415254592895508 11.000
3.1385161876678467 1.0777102708816528 4.946352005004883 13.000
2.789777994155884 0.9612184166908264 3.609424114227295 16.000
1.9552855491638184 0.599507212638855 19.030729293823242 51.000
4.353435039520264 1.477077841758728 9.569324493408203 11.000
3.417896270751953 1.1656501293182373 5.976993560791016 14.000
2.9388270378112793 1.0062696933746338 4.188035488128662 16.000
2.6850171089172363 0.9214522242546082 3.15568208694458 28.000
2.567992925643921 0.8903139233589172 2.750715970993042 26.000
2.3818368911743164 0.8271651268005371 2.115436315536499 31.000
2.2533023357391357 0.7834038138389587 1.6486812829971313 30.000
2.164299964904785 0.7533009052276611 1.2861331701278687 35.000
2.0889718532562256 0.727893054485321 0.9820875525474548 35.000
2.0204286575317383 0.7047931551933289 0.7189145088195801 34.000
1.9616955518722534 0.6850683093070984 0.4859704375267029 35.000
1.903690218925476 0.6655495166778564 0.2739957869052887 30.000
2.463231325149536 0.8506209254264832 2.4021670818328857 30.000
2.3211562633514404 0.8029113411903381 1.871938943862915 36.000
2.2095165252685547 0.7651517987251282 1.459653377532959 34.000
2.1236789226531982 0.7362499237060547 1.126511812210083 37.000
2.057105779647827 0.7139672636985779 0.8469971418380737 37.000
1.9929119348526 0.6920722126960754 0.5995388031005859 36.000
1.9223169088363647 0.6683013439178467 0.37606745958328247 33.000
1.8919212818145752 0.6580991148948669 0.17447930574417114 19.000
2.833606481552124 0.9014580249786377 18.902963638305664 97.000
4.2399001121521 1.3779351711273193 21.457042694091797 32.000
5.742804050445557 1.9072436094284058 19.392173767089844 36.000
5.42374849319458 1.8212305307388306 13.538243293762207 6.000
3.789471387863159 1.2805737257003784 7.397697925567627 11.000
3.1342649459838867 1.0640345811843872 4.933953285217285 13.000
2.7870476245880127 0.9494072794914246 3.6017489433288574 16.000
1.9573662281036377 0.5926783084869385 19.030729293823242 51.000
6.354862213134766 2.111694097518921 18.26466178894043 22.000
4.346181392669678 1.4577194452285767 9.542318344116211 11.000
3.4120588302612305 1.1503796577453613 5.959929943084717 14.000
2.936613082885742 0.9940728545188904 4.180055141448975 15.000
2.685006618499756 0.910984992980957 3.1520068645477295 28.000
2.567711353302002 0.8801882266998291 2.747211456298828 26.000
2.381028413772583 0.8175819516181946 2.112297773361206 31.000
2.2520687580108643 0.7741742134094238 1.645939826965332 30.000
2.1627278327941895 0.7443000078201294 1.2838144302368164 35.000
2.0871169567108154 0.719086766242981 0.980214536190033 36.000
2.0183417797088623 0.6961721777915955 0.7175045013427734 35.000
1.9594318866729736 0.6766133308410645 0.48503783345222473 35.000
1.9012951850891113 0.6572732329368591 0.2735486924648285 28.000
2.459118604660034 0.8396047353744507 2.3955161571502686 30.000
2.320120096206665 0.7934961318969727 1.8689956665039062 35.000
2.2080955505371094 0.7560381889343262 1.4571202993392944 33.000
2.1262359619140625 0.728832483291626 1.126511812210083 37.000
2.0551187992095947 0.705249547958374 0.8453536033630371 37.000
1.9953155517578125 0.6851114630699158 0.5995388031005859 35.000
1.9199546575546265 0.6599773168563843 0.37537676095962524 33.000
1.8894827365875244 0.6498661041259766 0.17427778244018555 18.000
2.8367362022399902 0.8915613889694214 18.902963638305664 96.000
4.243714809417725 1.362815499305725 21.452146530151367 55.000
5.75226354598999 1.888116717338562 19.401718139648438 22.000
5.417093276977539 1.7979793548583984 13.506025314331055 6.000
3.782560348510742 1.2635444402694702 7.375752925872803 12.000
3.1299562454223633 1.0504018068313599 4.921554088592529 12.000
2.7873075008392334 0.9386501908302307 3.597911834716797 17.000
1.959933876991272 0.5859947204589844 19.03569984436035 52.000
6.352357864379883 2.0862679481506348 18.23650550842285 39.000
4.338845252990723 1.4384297132492065 9.515311241149902 10.000
3.408630847930908 1.1359888315200806 5.947131633758545 14.000
2.93435001373291 0.9819039106369019 4.172074794769287 14.000
2.681741952896118 0.8994511365890503 3.1446566581726074 27.000
2.5640132427215576 0.8689306974411011 2.7402024269104004 25.000
2.3801820278167725 0.8080145120620728 2.109159469604492 31.000
2.250798463821411 0.7649628520011902 1.6431983709335327 30.000
2.161118745803833 0.7353192567825317 1.2814955711364746 34.000
2.085226058959961 0.7103021144866943 0.9783414602279663 36.000
2.0207595825195312 0.6891226172447205 0.7175045013427734 33.000
1.9617817401885986 0.6697695255279541 0.48503783345222473 35.000
1.9035779237747192 0.6506324410438538 0.2735486924648285 28.000
2.458496570587158 0.8298216462135315 2.392190456390381 31.000
2.319046974182129 0.7840980291366577 1.8660526275634766 35.000
2.2066378593444824 0.7469437718391418 1.4545871019363403 32.000
2.1244688034057617 0.7199494242668152 1.1244137287139893 37.000
2.053096294403076 0.69655442237854 0.8437101244926453 38.000
1.9930921792984009 0.6765799522399902 0.5983664989471436 35.000
1.9222468137741089 0.6532713770866394 0.37537676095962524 33.000
1.8917396068572998 0.6432666778564453 0.17427778244018555 18.000
2.8398308753967285 0.8816539645195007 18.902963638305664 96.000
4.253298759460449 1.3495333194732666 21.47662353515625 86.000
5.764498710632324 1.869868278503418 19.420804977416992 6.000
3.77785062789917 1.247329831123352 7.358195781707764 12.000
3.1282622814178467 1.0376979112625122 4.913288593292236 11.000
2.784484386444092 0.9268904328346252 3.5902366638183594 17.000
1.962478756904602 0.5793005228042603 19.040672302246094 53.000
6.3596014976501465 2.0640816688537598 18.23650550842285 44.000
4.331426620483398 1.4192087650299072 9.488303184509277 10.000
3.4051437377929688 1.121635913848877 5.934333801269531 14.000
2.9320380687713623 0.9697628617286682 4.164094924926758 14.000
2.678429126739502 0.887951135635376 3.1373062133789062 28.000
2.5636491775512695 0.8588424921035767 2.7366979122161865 25.000
2.379297971725464 0.7984629273414612 2.106020927429199 31.000
2.2494912147521973 0.7557698488235474 1.6404569149017334 31.000
2.16367244720459 0.7277710437774658 1.2814955711364746 34.000
2.0876927375793457 0.7030190229415894 0.9783414602279663 36.000
2.0186071395874023 0.6805322170257568 0.716094434261322 33.000
1.9594532251358032 0.6613466739654541 0.4841051995754242 35.000
1.901119589805603 0.6423896551132202 0.2731016278266907 28.000
2.457836151123047 0.8200531601905823 2.3888649940490723 31.000
2.3179359436035156 0.7747169733047485 1.8631093502044678 35.000
2.2092318534851074 0.7392366528511047 1.4545871019363403 32.000
2.1269688606262207 0.7125293016433716 1.1244137287139893 37.000
2.0510380268096924 0.6878820657730103 0.8420665860176086 37.000
1.9908336400985718 0.6680722832679749 0.5971941947937012 36.000
1.9198212623596191 0.6449805498123169 0.3746860921382904 33.000
1.889237880706787 0.6350674629211426 0.17407622933387756 22.000
2.842890977859497 0.871735692024231 18.902963638305664 96.000
4.255068302154541 1.333764672279358 21.461936950683594 101.000
5.770991325378418 1.8497350215911865 19.420804977416992 6.000
5.379334926605225 1.743852138519287 13.381756782531738 6.000
3.7730746269226074 1.2311636209487915 7.340640068054199 12.000
3.1238434314727783 1.0241422653198242 4.900889873504639 13.000
2.7846579551696777 0.9161633253097534 3.5863990783691406 16.000
1.965000867843628 0.5725956559181213 19.045642852783203 54.000
6.3667683601379395 2.041869878768921 18.23650550842285 48.000
4.325999736785889 1.4007281064987183 9.465797424316406 11.000
3.3991189002990723 1.1065140962600708 5.917270183563232 13.000
2.9325411319732666 0.9585860371589661 4.160104751586914 15.000
2.678290843963623 0.8775407671928406 3.1336309909820557 27.000
2.5598604679107666 0.8476465940475464 2.729688882827759 26.000
2.378376007080078 0.7889273166656494 2.1028823852539062 31.000
2.252115488052368 0.7479130625724792 1.6404569149017334 32.000
2.1619961261749268 0.7188165187835693 1.2791767120361328 34.000
2.085735321044922 0.6942632794380188 0.9764685034751892 36.000
2.020970344543457 0.673481822013855 0.716094434261322 35.000
1.957090139389038 0.652948260307312 0.48317259550094604 35.000
1.9033504724502563 0.6357495784759521 0.2731016278266907 28.000
2.4571380615234375 0.8102994561195374 2.3855395317077637 31.000
2.3167881965637207 0.7653533816337585 1.860166311264038 35.000
2.2077059745788574 0.7301669716835022 1.4520537853240967 32.000
2.1251344680786133 0.7036739587783813 1.122315764427185 37.000
2.0489447116851807 0.6792325973510742 0.8404231071472168 37.000
1.99315345287323 0.6611189246177673 0.5971941947937012 37.000
1.9220609664916992 0.6382752060890198 0.3746860921382904 33.000
1.886702060699463 0.6268936395645142 0.17387470602989197 21.000
2.845916748046875 0.8618068099021912 18.902963638305664 97.000
4.259697914123535 1.3189036846160889 21.461936950683594 92.000
5.761758804321289 1.824622631072998 19.36831283569336 14.000
3.765951633453369 1.2143110036849976 7.318694114685059 12.000
3.122044801712036 1.011497139930725 4.892623424530029 13.000
2.781743049621582 0.9044555425643921 3.5787241458892822 16.000
1.9680122137069702 0.5660274028778076 19.055585861206055 54.000
6.370566368103027 2.0185904502868652 18.22711944580078 55.000
4.318422317504883 1.3816392421722412 9.438790321350098 11.000
3.395512342453003 1.0922465324401855 5.904472827911377 13.000
2.9301345348358154 0.9464914798736572 4.152124881744385 17.000
2.674887180328369 0.8660980463027954 3.1262807846069336 27.000
2.5594141483306885 0.8375967144966125 2.726184129714966 26.000
2.3774168491363525 0.7794079780578613 2.0997438430786133 31.000
2.250739574432373 0.7387431263923645 1.6377153396606445 32.000
2.1602835655212402 0.7098824381828308 1.2768579721450806 35.000
2.083742141723633 0.6855296492576599 0.9745954275131226 36.000
2.0187525749206543 0.6649224758148193 0.7146844267845154 37.000
1.9546921253204346 0.6445743441581726 0.4822399616241455 35.000
1.9055579900741577 0.6291017532348633 0.2731016278266907 26.000
2.4528515338897705 0.799403727054596 2.3788886070251465 31.000
2.315603017807007 0.7560071349143982 1.8572230339050293 37.000
2.206143856048584 0.721116840839386 1.4495207071304321 33.000
2.1232643127441406 0.6948400139808655 1.1202176809310913 37.000
2.0513031482696533 0.6720762848854065 0.8404231071472168 38.000
1.990830421447754 0.6526433825492859 0.596021831035614 35.000
1.919572114944458 0.6300177574157715 0.3739953935146332 36.000
1.8888788223266602 0.6203039288520813 0.17387470602989197 18.000
2.84816312789917 0.8516450524330139 18.898025512695312 98.000
4.263302803039551 1.303728699684143 21.457042694091797 92.000
5.77664041519165 1.8071728944778442 19.39694595336914 11.000
3.7610397338867188 1.1982500553131104 7.301138401031494 12.000
3.12019681930542 0.9988772869110107 4.884357929229736 13.000
2.7787797451019287 0.8927792310714722 3.5710489749908447 18.000
1.9710017442703247 0.5594451427459717 19.065528869628906 55.000
6.375926494598389 1.9958255290985107 18.22242546081543 54.000
4.310763835906982 1.3626201152801514 9.411782264709473 11.000
3.3943331241607666 1.0788074731826782 5.89594030380249 14.000
2.9276793003082275 0.9344253540039062 4.144144535064697 17.000
2.6746649742126465 0.8557226061820984 3.122605562210083 29.000
2.5555357933044434 0.826462984085083 2.719175100326538 27.000
2.376420021057129 0.7699049115180969 2.0966053009033203 31.000
2.2493271827697754 0.7295920252799988 1.6349740028381348 32.000
2.162748336791992 0.702337384223938 1.2768579721450806 34.000
2.081714391708374 0.6768186688423157 0.9727224111557007 36.000
2.0164997577667236 0.6563869118690491 0.713274359703064 35.000
1.9569302797317505 0.6377472877502441 0.4822399616241455 31.000
1.903007984161377 0.6209016442298889 0.27265453338623047 26.000
2.452072858810425 0.789692223072052 2.375562906265259 31.000
2.3143813610076904 0.7466785907745361 1.8542799949645996 36.000
2.2086474895477295 0.7134115695953369 1.4495207071304321 33.000
2.1256768703460693 0.6874241828918457 1.1202176809310913 37.000
2.0491437911987305 0.6634572148323059 0.8387795686721802 38.000
1.9930964708328247 0.6456900835037231 0.596021831035614 32.000
1.9217596054077148 0.6233133673667908 0.3739953935146332 36.000
1.8862807750701904 0.6121646761894226 0.17367318272590637 18.000
2.851118564605713 0.8416978716850281 18.898025512695312 98.000
4.266852855682373 1.2885448932647705 21.452146530151367 84.000
3.75606107711792 1.182238221168518 7.283581733703613 12.000
3.1182985305786133 0.9862826466560364 4.876091957092285 12.000
2.7788245677948 0.8821043968200684 3.567211866378784 18.000
1.9739693403244019 0.5528488755226135 19.075471878051758 58.000
6.382853984832764 1.9735571146011353 18.22242546081543 54.000
4.303025722503662 1.3436715602874756 9.384775161743164 11.000
3.390613317489624 1.0646089315414429 5.883142948150635 14.000
2.925175666809082 0.9223878979682922 4.136165142059326 18.000
2.671170949935913 0.8443377017974854 3.115255355834961 27.000
2.5516114234924316 0.8153666257858276 2.7121660709381104 25.000
2.3753859996795654 0.7604183554649353 2.0934669971466064 31.000
2.247878313064575 0.7204598784446716 1.632232427597046 31.000
2.160968780517578 0.6934302449226379 1.2745391130447388 34.000
2.08406400680542 0.6695480346679688 0.9727224111557007 37.000
2.0187788009643555 0.6493440866470337 0.713274359703064 35.000
1.954468846321106 0.629406750202179 0.48130735754966736 31.000
1.9051638841629028 0.6142550706863403 0.27265453338623047 28.000
2.45125675201416 0.7799960374832153 2.3722376823425293 31.000
2.313122510910034 0.7373678684234619 1.8513367176055908 35.000
2.207017421722412 0.7043869495391846 1.446987509727478 33.000
2.1237406730651855 0.6786186099052429 1.1181195974349976 38.000
2.0514473915100098 0.6563003063201904 0.8387795686721802 38.000
1.9907089471817017 0.6372470855712891 0.5948495864868164 32.000
1.9239236116409302 0.6166013479232788 0.3739953935146332 35.000
1.8884062767028809 0.6055765748023987 0.17367318272590637 18.000
2.8532931804656982 0.8315231204032898 18.893085479736328 94.000
4.271324634552002 1.2736430168151855 21.452146530151367 79.000
3.7510170936584473 1.1662758588790894 7.266025543212891 12.000
3.1163501739501953 0.9737133979797363 4.867825984954834 13.000
2.7757697105407715 0.870481014251709 3.5595366954803467 17.000
1.9769147634506226 0.5462387800216675 19.085416793823242 59.000
6.388053894042969 1.950760841369629 18.21773338317871 50.000
4.29520845413208 1.324793815612793 9.357768058776855 12.000
3.386836051940918 1.0504494905471802 5.870345115661621 14.000
2.922623872756958 0.9103794097900391 4.128184795379639 17.000
2.670865535736084 0.8339979648590088 3.1115801334381104 27.000
2.5510411262512207 0.8053812980651855 2.7086615562438965 25.000
2.374314785003662 0.750948429107666 2.0903284549713135 31.000
2.2463932037353516 0.7113466262817383 1.6294909715652466 31.000
2.1633760929107666 0.6858828067779541 1.2745391130447388 35.000
2.0819694995880127 0.6608666181564331 0.970849335193634 36.000
2.016461133956909 0.6408403515815735 0.7118643522262573 34.000
1.9519728422164917 0.6210910677909851 0.4803747236728668 31.000
1.9025511741638184 0.6060895323753357 0.27220746874809265 27.000
2.4504024982452393 0.7703151702880859 2.3689119815826416 31.000
2.3118269443511963 0.7280749678611755 1.8483936786651611 34.000
2.209462881088257 0.6966786980628967 1.446987509727478 34.000
2.121767997741699 0.6698349714279175 1.1160215139389038 38.000
2.0492231845855713 0.6477122902870178 0.8371360898017883 38.000
1.992921233177185 0.6302943825721741 0.5948495864868164 34.000
1.9260642528533936 0.6098818778991699 0.3739953935146332 35.000
1.8905086517333984 0.5989810824394226 0.17367318272590637 19.000
2.8561782836914062 0.8215582370758057 18.893085479736328 89.000
4.274767875671387 1.2584381103515625 21.44725227355957 80.000
5.322990417480469 1.6234893798828125 13.17004108428955 5.000
3.7459070682525635 1.1503632068634033 7.24846887588501 12.000
3.1143524646759033 0.9611698985099792 4.859560012817383 13.000
2.77266788482666 0.8588898181915283 3.5518617630004883 17.000
1.980352520942688 0.5397548079490662 19.100330352783203 62.000
6.394824981689453 1.928450345993042 18.21773338317871 47.000
4.289394378662109 1.3066209554672241 9.335261344909668 11.000
3.3830010890960693 1.0363293886184692 5.857547283172607 14.000
2.9229037761688232 0.8992859721183777 4.124194622039795 17.000
2.6705210208892822 0.8236708045005798 3.1079049110412598 28.000
2.547027587890625 0.7943481802940369 2.7016525268554688 27.000
2.373206615447998 0.7414951920509338 2.0871901512145996 32.000
2.2448716163635254 0.7022525072097778 1.6267495155334473 32.000
2.161530017852783 0.6770031452178955 1.2722203731536865 35.000
2.084263801574707 0.6535951495170593 0.970849335193634 36.000
2.0141091346740723 0.6323607563972473 0.7104542851448059 34.000
1.9541289806365967 0.6142736673355103 0.4803747236728668 31.000
1.9046554565429688 0.5994446873664856 0.27220746874809265 27.000
2.4495108127593994 0.7606497406959534 2.365586519241333 30.000
2.310494899749756 0.7188000679016113 1.8454504013061523 34.000
2.207765579223633 0.6876801252365112 1.444454312324524 34.000
2.119760513305664 0.6610733270645142 1.11392343044281 37.000
2.051471471786499 0.6405552625656128 0.8371360898017883 36.000
1.9904695749282837 0.6218844652175903 0.5936772227287292 34.000
1.9234552383422852 0.6016765236854553 0.37330472469329834 34.000
1.8925877809524536 0.5923783183097839 0.17367318272590637 21.000
2.8590285778045654 0.8115832805633545 18.893085479736328 98.000
4.279134750366211 1.2435086965560913 21.44725227355957 86.000
5.323012828826904 1.6032087802886963 13.156233787536621 5.000
3.7407326698303223 1.1345003843307495 7.230913162231445 12.000
3.1123046875 0.9486519694328308 4.851294040679932 13.000
2.7695188522338867 0.8473308682441711 3.544186592102051 17.000
1.9832539558410645 0.5331152677536011 19.110273361206055 65.000
4.8707194328308105 1.4263901710510254 19.57779312133789 5.000
6.401517391204834 1.9061167240142822 18.21773338317871 46.000
4.281421184539795 1.2878782749176025 9.30825424194336 11.000
3.3791089057922363 1.0222487449645996 5.844749450683594 14.000
2.9202587604522705 0.8873257040977478 4.116214752197266 17.000
2.666893482208252 0.8123682141304016 3.1005544662475586 27.000
2.5463767051696777 0.7844027280807495 2.698147773742676 26.000
2.372061014175415 0.7320588827133179 2.0840516090393066 32.000
2.2473092079162598 0.6944122314453125 1.6267495155334473 32.000
2.1596479415893555 0.6681446433067322 1.2699015140533447 35.000
2.082104206085205 0.6449441313743591 0.9689763784408569 36.000
2.0163042545318604 0.62532639503479 0.7104542851448059 35.000
1.9515700340270996 0.6059920787811279 0.47944211959838867 35.000
1.9019807577133179 0.5913141369819641 0.27176037430763245 29.000
2.4485812187194824 0.7509999871253967 2.3622610569000244 30.000
2.309126138687134 0.7095434665679932 1.8425073623657227 34.000
2.2060322761535645 0.6787018179893494 1.4419211149215698 34.000
2.1220555305480957 0.6536698937416077 1.11392343044281 37.000
2.049182653427124 0.6319987177848816 0.8354925513267517 36.000
1.9926283359527588 0.614932656288147 0.5936772227287292 34.000
1.9255437850952148 0.5949587821960449 0.37330472469329834 34.000
1.8946441411972046 0.5857683420181274 0.17367318272590637 22.000
2.861844301223755 0.8015984296798706 18.893085479736328 98.000
4.283449172973633 1.2285641431808472 21.44725227355957 84.000
3.73549222946167 1.1186877489089966 7.2133564949035645 11.000
3.110208034515381 0.9361603260040283 4.843028545379639 14.000
2.7663233280181885 0.8358043432235718 3.5365118980407715 16.000
1.9861335754394531 0.5264620780944824 19.120216369628906 68.000
4.875669002532959 1.409379482269287 19.57779312133789 6.000
6.408132076263428 1.8837594985961914 18.21773338317871 43.000
4.273369312286377 1.2692068815231323 9.28124713897705 12.000
3.375159740447998 1.0082080364227295 5.83195161819458 14.000
2.9175658226013184 0.8753949403762817 4.108234405517578 18.000
2.6664669513702393 0.8020776510238647 3.096879482269287 27.000
2.5422756671905518 0.7734336256980896 2.691138744354248 26.000
2.3708786964416504 0.7226396799087524 2.0809133052825928 32.000
2.245720386505127 0.6853430867195129 1.624008059501648 31.000
2.1577308177948 0.6593076586723328 1.2675827741622925 34.000
2.0799098014831543 0.6363160610198975 0.9671033024787903 36.000
2.013888120651245 0.6168794631958008 0.709044337272644 33.000
1.9536736011505127 0.5991761684417725 0.47944211959838867 35.000
1.8992725610733032 0.5832094550132751 0.27131330966949463 28.000
2.4476144313812256 0.7413660287857056 2.358935594558716 30.000
2.307720899581909 0.7003051042556763 1.8395640850067139 35.000
2.20426344871521 0.6697440147399902 1.4393880367279053 34.000
2.1199822425842285 0.6449378132820129 1.1118254661560059 37.000
2.046858787536621 0.6234660148620605 0.8338490724563599 38.000
1.9901132583618164 0.606556236743927 0.5925049185752869 36.000
1.9228724241256714 0.5867884159088135 0.3726140558719635 35.000
1.8918991088867188 0.5776922106742859 0.17347164452075958 22.000
2.8646247386932373 0.7916038632392883 18.893085479736328 98.000
4.2877116203308105 1.2136046886444092 21.44725227355957 97.000
3.7301878929138184 1.1029257774353027 7.195800304412842 11.000
3.1080617904663086 0.9236947894096375 4.834762096405029 13.000
2.7661526203155518 0.8252267241477966 3.5326743125915527 16.000
1.988474726676941 0.5196605324745178 19.125186920166016 72.000
4.892646312713623 1.3957996368408203 19.626188278198242 7.000
6.413011074066162 1.8608988523483276 18.213041305541992 41.000
4.267328262329102 1.2512201070785522 9.25874137878418 12.000
3.3711540699005127 0.994207501411438 5.819153785705566 14.000
2.914825439453125 0.863493800163269 4.100254535675049 18.000
2.662750482559204 0.7908348441123962 3.089529037475586 29.000
2.541544198989868 0.7635287046432495 2.687633991241455 27.000
2.369659662246704 0.7132375836372375 2.0777747631073 32.000
2.2440953254699707 0.6762933731079102 1.6212666034698486 31.000
2.1557776927948 0.6504920125007629 1.2652639150619507 34.000
2.082118272781372 0.629051923751831 0.9671033024787903 36.000
2.0114376544952393 0.6084570288658142 0.7076342701911926 33.000
1.9557530879974365 0.5923529267311096 0.47944211959838867 35.000
1.9012967348098755 0.5765761733055115 0.27131330966949463 28.000
2.4466097354888916 0.7317479252815247 2.3556101322174072 30.000
2.306279420852661 0.691085159778595 1.8366210460662842 35.000
2.2024588584899902 0.6608068943023682 1.4368547201156616 33.000
2.122220754623413 0.6375337839126587 1.1118254661560059 37.000
2.049022674560547 0.6163173913955688 0.8338490724563599 37.000
1.9922183752059937 0.5996057391166687 0.5925049185752869 34.000
1.9249088764190674 0.5800727605819702 0.3726140558719635 35.000
1.893904209136963 0.57108473777771 0.17347164452075958 21.000
2.86737060546875 0.7815996408462524 18.893085479736328 98.000
4.29094123840332 1.1983566284179688 21.44235610961914 94.000
3.7271173000335693 1.0878851413726807 7.182632923126221 11.000
3.1058669090270996 0.9112557172775269 4.826496601104736 13.000
2.762866735458374 0.8137549757957458 3.524998903274536 17.000
1.9907931089401245 0.5128492116928101 19.130159378051758 73.000
4.893859386444092 1.3776909112930298 19.611669540405273 9.000
6.417808532714844 1.838026523590088 18.20834732055664 39.000
4.2591233253479 1.2326856851577759 9.231734275817871 13.000
3.367091655731201 0.9802470207214355 5.806355953216553 14.000
2.9120376110076904 0.8516224026679993 4.092274188995361 19.000
2.6589884757995605 0.7796278595924377 3.082178831100464 29.000
2.5407750606536865 0.7536382675170898 2.6841297149658203 27.000
2.368403911590576 0.7038528919219971 2.074636459350586 32.000
2.242434501647949 0.667263388633728 1.6185251474380493 31.000
2.1580352783203125 0.6429629921913147 1.2652639150619507 33.000
2.0798587799072266 0.6204549670219421 0.9652302861213684 36.000
2.013549327850342 0.6014320254325867 0.7076342701911926 33.000
1.953102469444275 0.5841149091720581 0.47850948572158813 35.000
1.8985271453857422 0.5685074925422668 0.2708662152290344 27.000
2.445568561553955 0.7221459150314331 2.3522846698760986 31.000
2.3086776733398438 0.6830305457115173 1.8366210460662842 34.000
2.2006187438964844 0.6518905162811279 1.434321641921997 33.000
2.120081663131714 0.6288313269615173 1.109727382659912 37.000
2.0466346740722656 0.607816755771637 0.8322055339813232 38.000
1.9896398782730103 0.5912634134292603 0.5913326144218445 34.000
1.922175645828247 0.5719377994537354 0.37192338705062866 35.000
1.891097903251648 0.5630447268486023 0.1732701063156128 20.000
2.870081663131714 0.7715858817100525 18.893085479736328 97.000
4.296079635620117 1.1836415529251099 21.44725227355957 90.000
3.721686363220215 1.0722166299819946 7.16507625579834 11.000
3.1036226749420166 0.8988431096076965 4.818230628967285 13.000
2.7626125812530518 0.8032110333442688 3.5211613178253174 17.000
1.993087649345398 0.50602787733078 19.135129928588867 75.000
4.902271747589111 1.3616087436676025 19.626188278198242 11.000
6.422525405883789 1.8151438236236572 18.203655242919922 43.000
4.25084114074707 1.2142239809036255 9.204727172851562 12.000
3.3654794692993164 0.9670473337173462 5.797824382781982 14.000
2.9092025756835938 0.8397811651229858 4.084294319152832 19.000
2.6584367752075195 0.7693989872932434 3.0785036087036133 29.000
2.5399677753448486 0.7437626123428345 2.6806249618530273 29.000
2.3671114444732666 0.694485604763031 2.071497917175293 32.000
2.2407381534576416 0.6582533121109009 1.61578369140625 31.000
2.1560168266296387 0.6341762542724609 1.2629451751708984 33.000
2.082012176513672 0.6131911873817444 0.9652302861213684 36.000
2.0110349655151367 0.5930429100990295 0.7062242031097412 33.000
1.9551295042037964 0.5772937536239624 0.47850948572158813 36.000
1.9005000591278076 0.5618768930435181 0.2708662152290344 27.000
2.4444897174835205 0.7125600576400757 2.348958969116211 31.000
2.3071677684783936 0.673834502696991 1.8336777687072754 34.000
2.1987433433532715 0.6429949998855591 1.431788444519043 34.000
2.117908239364624 0.6201518177986145 1.1076292991638184 37.000
2.044212579727173 0.599340558052063 0.8305620551109314 38.000
1.9916917085647583 0.5843146443367004 0.5913326144218445 36.000
1.9241604804992676 0.5652247071266174 0.37192338705062866 36.000
1.8930516242980957 0.5564400553703308 0.1732701063156128 19.000
2.8727574348449707 0.761562705039978 18.893085479736328 97.000
4.302149772644043 1.169171929359436 21.457042694091797 72.000
3.7161920070648193 1.0565993785858154 7.147520542144775 11.000
3.0986244678497314 0.8856841921806335 4.8058319091796875 13.000
2.7592380046844482 0.7917947769165039 3.513486623764038 17.000
1.9948419332504272 0.49906763434410095 19.135129928588867 74.000
4.908206939697266 1.3448203802108765 19.631027221679688 12.000
6.425497531890869 1.791787028312683 18.194271087646484 40.000
4.242481708526611 1.1958351135253906 9.177720069885254 11.000
3.361307382583618 0.953159511089325 5.785026550292969 14.000
2.906320333480835 0.8279699683189392 4.0763139724731445 19.000
2.6545867919921875 0.7582525610923767 3.071153163909912 29.000
2.5391223430633545 0.7339017987251282 2.6771204471588135 29.000
2.3657827377319336 0.6851359605789185 2.068359375 32.000
2.239006280899048 0.6492631435394287 1.6130422353744507 31.000
2.158217430114746 0.6266465187072754 1.2629451751708984 33.000
2.07968807220459 0.6046256422996521 0.9633572101593018 36.000
2.0130929946899414 0.5860194563865662 0.7062242031097412 34.000
1.9571328163146973 0.570465624332428 0.47850948572158813 35.000
1.8976691961288452 0.5538442134857178 0.2704191505908966 29.000
2.443373918533325 0.7029905319213867 2.3456335067749023 31.000
2.305622100830078 0.6646573543548584 1.8307347297668457 34.000
2.200974225997925 0.6353160738945007 1.431788444519043 33.000
2.1200602054595947 0.6127551198005676 1.1076292991638184 37.000
2.046292304992676 0.5922012329101562 0.8305620551109314 37.000
1.993719220161438 0.5773587822914124 0.5913326144218445 36.000
1.92136549949646 0.5571255087852478 0.37123268842697144 37.000
1.8901844024658203 0.5484365820884705 0.1730685830116272 24.000
2.8753981590270996 0.7515302896499634 18.893085479736328 96.000
4.306204795837402 1.1541475057601929 21.457042694091797 37.000
3.7106332778930664 1.041033387184143 7.1299638748168945 11.000
3.096280574798584 0.8733348846435547 4.797565937042236 13.000
2.7589008808135986 0.7812851667404175 3.5096490383148193 17.000
1.9960544109344482 0.4919739365577698 19.130159378051758 73.000
4.9140849113464355 1.3280073404312134 19.635866165161133 12.000
6.428384780883789 1.768431544303894 18.184885025024414 38.000
4.234045505523682 1.1775193214416504 9.150712013244629 11.000
3.359591007232666 0.9400151968002319 5.77649450302124 14.000
2.9062917232513428 0.8170045018196106 4.072324275970459 19.000
2.65395450592041 0.7480620741844177 3.0674781799316406 29.000
2.5382392406463623 0.7240558862686157 2.6736159324645996 29.000
2.364417314529419 0.675804078578949 2.065220832824707 32.000
2.2412588596343994 0.64144366979599 1.6130422353744507 31.000
2.1603918075561523 0.619109034538269 1.2629451751708984 34.000
2.0817859172821045 0.5973624587059021 0.9633572101593018 36.000
2.0105156898498535 0.5776642560958862 0.7048141956329346 32.000
1.954391360282898 0.562272310256958 0.47757688164711 35.000
1.8995908498764038 0.5472167730331421 0.2704191505908966 28.000
2.442221164703369 0.6934375166893005 2.3423080444335938 31.000
2.3040404319763184 0.6554992198944092 1.827791452407837 34.000
2.19903302192688 0.6264484524726868 1.4292552471160889 34.000
2.117821455001831 0.6041060090065002 1.1055312156677246 36.000
2.043806314468384 0.5837578773498535 0.8289185166358948 36.000
1.9910492897033691 0.5690602660179138 0.5901603102684021 36.000
1.9232984781265259 0.5504153370857239 0.37123268842697144 37.000
1.8920872211456299 0.5418352484703064 0.1730685830116272 24.000
2.8780040740966797 0.7414886951446533 18.893085479736328 97.000
3.74416184425354 0.9895532727241516 18.64228630065918 30.000
3.7050118446350098 1.0255192518234253 7.112407684326172 11.000
3.0938880443573 0.8610127568244934 4.789299964904785 13.000
2.758524179458618 0.7707875370979309 3.5058114528656006 18.000
1.997759461402893 0.48500341176986694 19.130159378051758 75.000
4.9186906814575195 1.3108458518981934 19.635866165161133 17.000
6.431188106536865 1.7450776100158691 18.175498962402344 36.000
4.225534439086914 1.1592772006988525 9.12370491027832 12.000
3.3553097248077393 0.9262006878852844 5.763696670532227 14.000
2.9033186435699463 0.8052442669868469 4.06434440612793 20.000
2.650017023086548 0.7369768619537354 3.0601277351379395 30.000
2.537318468093872 0.7142251133918762 2.6701114177703857 28.000
2.363015651702881 0.6664900779724121 2.062082529067993 32.000
2.2394602298736572 0.6324798464775085 1.6103006601333618 32.000
2.1582765579223633 0.6103586554527283 1.2606263160705566 35.000
2.0793979167938232 0.5888290405273438 0.9614842534065247 36.000
2.0125198364257812 0.5706427097320557 0.7048141956329346 32.000
1.956342339515686 0.5554468035697937 0.47757688164711 37.000
1.89669930934906 0.5392208695411682 0.2699720561504364 28.000
2.4410312175750732 0.6839010119438171 2.338982582092285 31.000
2.3024227619171143 0.6463601589202881 1.8248482942581177 35.000
2.1970560550689697 0.6176019906997681 1.4267220497131348 34.000
2.119917392730713 0.5967097878456116 1.1055312156677246 37.000
2.0412864685058594 0.575339138507843 0.8272750377655029 36.000
1.99302339553833 0.5621067881584167 0.5901603102684021 35.000
1.9204425811767578 0.5423526167869568 0.3705420196056366 35.000
1.8891595602035522 0.5338687300682068 0.1728670597076416 21.000
2.879822015762329 0.7312470078468323 18.888147354125977 97.000
3.749563455581665 0.9769909977912903 18.652076721191406 67.000
3.699327230453491 1.0100570917129517 7.094851493835449 12.000
3.091447353363037 0.8487180471420288 4.781034469604492 12.000
2.7550179958343506 0.7594504952430725 3.498136520385742 18.000
1.999440312385559 0.47802698612213135 19.130159378051758 75.000
4.92323637008667 1.293668508529663 19.635866165161133 19.000
6.435573577880859 1.7221721410751343 18.170806884765625 34.000
4.216947078704834 1.1411088705062866 9.096697807312012 11.000
3.3534891605377197 0.9131125211715698 5.755164623260498 14.000
2.903205156326294 0.794309675693512 4.060354232788086 20.000
2.649303913116455 0.7268252372741699 3.056452512741089 30.000
2.532923460006714 0.7034554481506348 2.663102388381958 29.000
2.3615777492523193 0.6571940779685974 2.0589439868927 32.000
2.24165415763855 0.6246588230133057 1.6103006601333618 32.000
2.1603941917419434 0.6028211116790771 1.2606263160705566 35.000
2.0814406871795654 0.5815669894218445 0.9614842534065247 36.000
2.0098798274993896 0.5623217225074768 0.7034041285514832 32.000
1.9582691192626953 0.548614501953125 0.47757688164711 35.000
1.898569941520691 0.5325968265533447 0.2699720561504364 28.000
2.443403720855713 0.6753761172294617 2.338982582092285 31.000
2.3046650886535645 0.6383192539215088 1.8248482942581177 35.000
2.1991987228393555 0.6099291443824768 1.4267220497131348 33.000
2.117614269256592 0.5880919098854065 1.1034332513809204 37.000
2.0432822704315186 0.5682101845741272 0.8272750377655029 37.000
1.9902904033660889 0.5538432598114014 0.5889879465103149 35.000
1.9223239421844482 0.5356457233428955 0.3705420196056366 35.000
1.8910114765167236 0.5272710919380188 0.1728670597076416 21.000
2.882356643676758 0.7211900949478149 18.888147354125977 97.000
3.751964807510376 0.9636433720588684 18.647180557250977 76.000
5.172563552856445 1.3822636604309082 12.672968864440918 6.000
3.695892572402954 0.995269775390625 7.081684589385986 12.000
3.088958740234375 0.8364507555961609 4.772768020629883 12.000
2.75455904006958 0.7489880323410034 3.4942989349365234 18.000
2.000577449798584 0.47092264890670776 19.125186920166016 76.000
4.9265055656433105 1.2761600017547607 19.631027221679688 19.000
6.436539649963379 1.6983766555786133 18.156726837158203 34.000
4.210387706756592 1.1235759258270264 9.074191093444824 11.000
3.349099636077881 0.8993721604347229 5.742367267608643 13.000
2.9030508995056152 0.7833858132362366 4.056364059448242 22.000
2.648552894592285 0.7166876196861267 3.0527775287628174 30.000
2.53192400932312 0.6936673521995544 2.659597873687744 29.000
2.3601043224334717 0.647916316986084 2.0558056831359863 32.000
2.2397892475128174 0.6157219409942627 1.607559323310852 31.000
2.1582143306732178 0.5941006541252136 1.2583075761795044 35.000
2.078988552093506 0.573065996170044 0.959611177444458 36.000
2.0118303298950195 0.5553025603294373 0.7034041285514832 32.000
1.955437421798706 0.5404669046401978 0.47664424777030945 35.000
1.9004175662994385 0.5259664058685303 0.2699720561504364 28.000
2.4421441555023193 0.6658608913421631 2.3356571197509766 31.000
2.3029799461364746 0.6292053461074829 1.8219051361083984 35.000
2.1971561908721924 0.6011112332344055 1.4241889715194702 32.000
2.11527681350708 0.5794972777366638 1.1013351678848267 37.000
2.0406994819641113 0.5598251223564148 0.8256314992904663 37.000
1.9922115802764893 0.546892523765564 0.5889879465103149 36.000
