# .PCD v.7 - Point Cloud Data file format
VERSION .7
FIELDS x y z intensity
SIZE 4 4 4 4
TYPE F F F F
COUNT 1 1 1 1
WIDTH 762
HEIGHT 1
VIEWPOINT 0 0 0 1 0 0 0
POINTS 762
DATA ascii
1.9452052116394043 1.0425785779953003 0.7386549711227417 35.000
1.8961756229400635 1.016723394393921 0.4999597668647766 23.000
1.8564778566360474 0.9950204491615295 0.2820431888103485 15.000
2.2823169231414795 1.2186641693115234 2.3855395317077637 8.000
2.184413194656372 1.1663854122161865 1.8866546154022217 0.000
2.093050003051758 1.1175991296768188 1.4799188375473022 18.000
2.030778646469116 1.0843464136123657 1.1516884565353394 25.000
1.970799446105957 1.0523176193237305 0.8667192459106445 30.000
1.9167245626449585 1.0234414339065552 0.6147789359092712 31.000
1.891383171081543 1.0099074840545654 0.391262412071228 36.000
1.8022559881210327 0.9623150825500488 0.17609155178070068 9.000
0.280531644821167 0.10040804743766785 32.568031311035156 19.000
5.094735622406006 2.6602094173431396 36.53611373901367 0.000
3.629960775375366 1.9131242036819458 13.16473388671875 0.000
4.122417449951172 2.1781558990478516 11.04367446899414 13.000
3.16521954536438 1.674523949623108 6.629609107971191 11.000
2.7560975551605225 1.459310531616211 4.652912616729736 0.000
2.508366107940674 1.3286983966827393 3.475111484527588 0.000
2.2118048667907715 1.1099039316177368 42.62819290161133 24.000
4.014471530914307 2.066910743713379 42.06867599487305 20.000
3.863222599029541 2.0240256786346436 16.82900047302246 0.000
4.205942153930664 2.2110400199890137 12.975913047790527 20.000
3.5010626316070557 1.8443857431411743 8.245967864990234 12.000
2.915234088897705 1.5370664596557617 5.4608154296875 11.000
2.6246933937072754 1.385043978691101 4.0044941902160645 9.000
2.4174447059631348 1.2762151956558228 3.0417518615722656 0.000
2.343553066253662 1.2450634241104126 2.687633991241455 6.000
2.2298812866210938 1.1851673126220703 2.118574619293213 9.000
2.128704309463501 1.1313902139663696 1.6651301383972168 0.000
2.0509707927703857 1.0900731086730957 1.3023648262023926 26.000
2.002518892288208 1.0643186569213867 1.0045639276504517 31.000
1.948832631111145 1.0357823371887207 0.7386549711227417 35.000
1.899713158607483 1.0100983381271362 0.4999597668647766 23.000
1.8599398136138916 0.9885340929031372 0.2820431888103485 15.000
2.2799575328826904 1.20719575881958 2.3788886070251465 8.000
2.1813273429870605 1.1549707651138306 1.8807682991027832 0.000
2.0893189907073975 1.1062519550323486 1.474852442741394 24.000
2.0305404663085938 1.0751274824142456 1.1495903730392456 19.000
1.970287561416626 1.0432223081588745 0.8650757670402527 29.000
1.9159897565841675 1.014470100402832 0.6136066317558289 34.000
1.8905205726623535 1.0009819269180298 0.3905717432498932 36.000
1.8056042194366455 0.9560182094573975 0.17609155178070068 8.000
0.28083914518356323 0.09941394627094269 32.56303024291992 19.000
5.097090244293213 2.6388373374938965 36.48672103881836 0.000
3.632647752761841 1.8983677625656128 13.15041732788086 0.000
4.110959053039551 2.153779983520508 10.993047714233398 14.000
3.1604409217834473 1.6579023599624634 6.607663631439209 11.000
2.7512083053588867 1.444448709487915 4.636380672454834 11.000
2.5044760704040527 1.3154631853103638 3.4635989665985107 0.000
2.2169580459594727 1.1028190851211548 42.65314865112305 28.000
4.02166223526001 2.052884817123413 42.06867599487305 20.000
3.8702640533447266 2.010528326034546 16.82900047302246 0.000
4.225876808166504 2.202726125717163 13.013455390930176 0.000
3.495901584625244 1.8261061906814575 8.218960762023926 12.000
2.9113364219665527 1.5220476388931274 5.443751811981201 11.000
2.618832588195801 1.3702857494354248 3.9885337352752686 9.000
2.418881416320801 1.2661969661712646 3.038076877593994 15.000
2.3447296619415283 1.2352131605148315 2.6841297149658203 7.000
2.2271180152893066 1.1737468242645264 2.112297773361206 10.000
2.128941297531128 1.1220030784606934 1.662388563156128 0.000
2.0547633171081543 1.0829071998596191 1.3023648262023926 26.000
2.0062217712402344 1.0573220252990723 1.0045639276504517 32.000
1.9481925964355469 1.0267367362976074 0.7372449636459351 35.000
1.8988820314407349 1.0011699199676514 0.4990271031856537 20.000
1.858973741531372 0.9797138571739197 0.2815961241722107 15.000
2.280851364135742 1.1974941492080688 2.375562906265259 8.000
2.1817667484283447 1.1454704999923706 1.8778252601623535 0.000
2.08553409576416 1.0949444770812988 1.4697860479354858 24.000
2.0262439250946045 1.06381356716156 1.145394206047058 19.000
1.969736099243164 1.0341432094573975 0.8634322285652161 29.000
1.9195191860198975 1.007775902748108 0.6136066317558289 34.000
1.885233998298645 0.9897729158401489 0.3891903758049011 35.000
1.804506778717041 0.9473872780799866 0.1758900135755539 8.000
0.2812257707118988 0.09844713658094406 32.568031311035156 19.000
5.126317024230957 2.6313185691833496 36.62996292114258 0.000
3.6419034004211426 1.8870493173599243 13.159961700439453 0.000
4.099381446838379 2.1295104026794434 10.942419052124023 15.000
3.159834861755371 1.6435446739196777 6.594496250152588 11.000
2.751241683959961 1.4322376251220703 4.628114700317383 0.000
2.5062100887298584 1.3052324056625366 3.459761381149292 0.000
2.2205352783203125 1.0949461460113525 42.64815902709961 32.000
4.02880334854126 2.0388340950012207 42.06867599487305 21.000
3.8761417865753174 1.9964308738708496 16.824161529541016 0.000
4.268800258636475 2.206184148788452 13.121389389038086 0.000
3.4906563758850098 1.8078852891921997 8.191953659057617 12.000
2.9096851348876953 1.5082752704620361 5.430953502655029 11.000
2.615575075149536 1.3569729328155518 3.9765634536743164 10.000
2.414259195327759 1.2530605792999268 3.0270514488220215 15.000
2.342705249786377 1.2237187623977661 2.6771204471588135 7.000
2.224302291870117 1.1623601913452148 2.106020927429199 11.000
2.132844924926758 1.1145648956298828 1.662388563156128 0.000
2.054605007171631 1.0736764669418335 1.3000459671020508 28.000
2.005791664123535 1.0481655597686768 1.0026909112930298 32.000
1.9475129842758179 1.0177081823349 0.7358348965644836 36.000
1.8980121612548828 0.9922596216201782 0.4980945289134979 21.000
1.8579683303833008 0.9709123969078064 0.2811490297317505 15.000
2.281705617904663 1.1878011226654053 2.3722376823425293 8.000
2.182166337966919 1.1359813213348389 1.8748819828033447 15.000
2.085519790649414 1.085667371749878 1.4672529697418213 23.000
2.0259194374084473 1.0546386241912842 1.143296241760254 0.000
1.9733338356018066 1.0272612571716309 0.8634322285652161 33.000
1.9187140464782715 0.9988250732421875 0.6124343276023865 35.000
1.8842848539352417 0.980899453163147 0.3884996771812439 35.000
1.8033714294433594 0.9387757182121277 0.1756884902715683 8.000
0.2816503942012787 0.09749279916286469 32.578033447265625 18.000
5.118158340454102 2.6045985221862793 36.5064811706543 0.000
3.635190486907959 1.8675044775009155 13.112241744995117 0.000
4.08942174911499 2.1062426567077637 10.896393775939941 14.000
3.154909133911133 1.6270161867141724 6.5725507736206055 11.000
2.7537238597869873 1.4213346242904663 4.623981952667236 8.000
2.5050549507141113 1.2935349941253662 3.4520866870880127 0.000
2.224862575531006 1.0874419212341309 42.65814208984375 35.000
4.03637170791626 2.0249974727630615 42.073646545410156 21.000
3.883086919784546 1.9828884601593018 16.824161529541016 0.000
4.282618045806885 2.1944174766540527 13.140159606933594 0.000
3.4833903312683105 1.7887287139892578 8.160445213317871 12.000
2.9079737663269043 1.4945330619812012 5.418156147003174 11.000
2.612257719039917 1.3436998128890991 3.9645934104919434 11.000
2.4125897884368896 1.2415231466293335 3.0197010040283203 15.000
2.3406288623809814 1.2122535705566406 2.6701114177703857 8.000
2.2248899936676025 1.1527981758117676 2.1028823852539062 11.000
2.1367223262786865 1.1071131229400635 1.662388563156128 0.000
2.0544068813323975 1.0644601583480835 1.2977272272109985 29.000
2.005322217941284 1.039025068283081 1.000817894935608 33.000
1.9467943906784058 1.0086970329284668 0.734424889087677 33.000
1.8971028327941895 0.9833676218986511 0.497161865234375 0.000
1.852502703666687 0.9598389267921448 0.28025487065315247 14.000
2.282520055770874 1.178116798400879 2.3689119815826416 8.000
2.1789348125457764 1.1246495246887207 1.8689956665039062 14.000
2.0816357135772705 1.0744266510009766 1.4621866941452026 0.000
2.0255556106567383 1.0454787015914917 1.1411981582641602 23.000
1.9727115631103516 1.0182009935379028 0.8617887496948242 33.000
1.9178693294525146 0.9898920059204102 0.6112619638442993 35.000
1.8876972198486328 0.9743161201477051 0.3884996771812439 35.000
1.8066374063491821 0.9324750900268555 0.1756884902715683 7.000
0.2820717394351959 0.09653669595718384 32.58803176879883 18.000
5.125831127166748 2.586016893386841 36.49660110473633 0.000
3.643017053604126 1.8554812669754028 13.117012977600098 0.000
4.079349517822266 2.0830702781677246 10.85036849975586 14.000
3.1520395278930664 1.6116324663162231 6.554994583129883 11.000
2.7536582946777344 1.4091498851776123 4.615715980529785 8.000
2.506701707839966 1.2833222150802612 3.448249101638794 8.000
2.228644847869873 1.0796689987182617 42.65814208984375 41.000
4.043893814086914 2.0111331939697266 42.078617095947266 22.000
3.894470691680908 1.9715927839279175 16.84351921081543 47.000
4.19178581237793 2.1294353008270264 12.839822769165039 0.000
3.4779725074768066 1.7706326246261597 8.133437156677246 12.000
2.9062013626098633 1.480821132659912 5.40535831451416 11.000
2.606194496154785 1.3290975093841553 3.9486334323883057 0.000
2.4108691215515137 1.2300126552581787 3.0123507976531982 15.000
2.338501214981079 1.2008178234100342 2.663102388381958 8.000
2.2219760417938232 1.1414676904678345 2.0966053009033203 11.000
2.136854410171509 1.097737193107605 1.6596472263336182 0.000
2.0541696548461914 1.0552581548690796 1.2954083681106567 28.000
2.0006895065307617 1.0277819633483887 0.9970718026161194 33.000
1.9417697191238403 0.9975114464759827 0.731604814529419 33.000
1.8961549997329712 0.9744941592216492 0.49622929096221924 32.000
1.8514124155044556 0.9510911703109741 0.27980780601501465 13.000
2.283295154571533 1.1684412956237793 2.365586519241333 9.000
2.1792492866516113 1.1151955127716064 1.8660526275634766 15.000
2.081535816192627 1.065190076828003 1.459653377532959 0.000
2.0251526832580566 1.03633451461792 1.139100193977356 24.000
1.9720498323440552 1.0091575384140015 0.8601452112197876 33.000
1.9169864654541016 0.9809772968292236 0.6100897192955017 35.000
1.886678695678711 0.9654650688171387 0.38780900835990906 34.000
1.8054338693618774 0.9238871932029724 0.1754869520664215 9.000
0.2825313210487366 0.09559250622987747 32.60302734375 18.000
3.6574666500091553 1.846790075302124 13.145645141601562 0.000
4.067422389984131 2.059112071990967 10.799741744995117 13.000
3.1469650268554688 1.5952057838439941 6.533049583435059 11.000
2.7535414695739746 1.396983027458191 4.607450485229492 8.000
2.5054497718811035 1.2716630697250366 3.4405741691589355 8.000
2.231879711151123 1.071633219718933 42.64815902709961 46.000
4.050889492034912 1.9970049858093262 42.078617095947266 22.000
3.9035756587982178 1.9591140747070312 16.853199005126953 41.000
3.9402616024017334 1.984391212463379 12.051438331604004 0.000
3.4724714756011963 1.752596378326416 8.106430053710938 12.000
2.9043691158294678 1.4671399593353271 5.3925604820251465 11.000
2.6054396629333496 1.3172727823257446 3.940653085708618 0.000
2.40909743309021 1.218529462814331 3.005000114440918 14.000
2.336322546005249 1.1894117593765259 2.6560933589935303 8.000
2.219010353088379 1.1301716566085815 2.0903284549713135 0.000
2.1369473934173584 1.0883737802505493 1.6569056510925293 17.000
2.053893566131592 1.0460710525512695 1.2930896282196045 28.000
2.0042648315429688 1.020792007446289 0.9970718026161194 31.000
1.940965175628662 0.9885501861572266 0.7301947474479675 32.000
1.8951681852340698 0.9656392335891724 0.4952966272830963 28.000
1.8502833843231201 0.9423626065254211 0.27936071157455444 13.000
2.284029960632324 1.1587746143341064 2.3622610569000244 11.000
2.183128833770752 1.1075817346572876 1.8660526275634766 15.000
2.0852413177490234 1.0579177141189575 1.459653377532959 0.000
2.0247104167938232 1.0272057056427002 1.1370019912719727 25.000
1.9671380519866943 0.9979947805404663 0.8568581938743591 31.000
1.9160640239715576 0.9720805287361145 0.6089173555374146 33.000
1.881204605102539 0.9543924927711487 0.3864276707172394 34.000
1.8041925430297852 0.9153190851211548 0.1752854287624359 8.000
0.2829047739505768 0.09461923688650131 32.608028411865234 18.000
3.691922426223755 1.8480429649353027 13.245857238769531 0.000
4.058870315551758 2.037014961242676 10.758318901062012 13.000
3.143954277038574 1.5799098014831543 6.515493392944336 10.000
2.75337290763855 1.3848340511322021 4.599184513092041 7.000
2.5041470527648926 1.2600282430648804 3.432898998260498 9.000
2.2358672618865967 1.0639599561691284 42.65314865112305 49.000
4.057835578918457 1.982852578163147 42.078617095947266 22.000
3.9148919582366943 1.9477155208587646 16.872554779052734 0.000
3.951796054840088 1.9729373455047607 12.065516471862793 0.000
3.464939832687378 1.733646035194397 8.074922561645508 12.000
2.9024770259857178 1.4534895420074463 5.379762649536133 11.000
2.601940631866455 1.3041197061538696 3.928683280944824 0.000
2.4072751998901367 1.2070735692977905 2.997649908065796 14.000
2.334092855453491 1.1780356168746948 2.6490843296051025 8.000
2.2194671630859375 1.1206648349761963 2.0871901512145996 0.000
2.140733480453491 1.0809077024459839 1.6569056510925293 0.000
2.049623727798462 1.0349019765853882 1.2884520292282104 30.000
1.9995392560958862 1.009610652923584 0.9933257102966309 0.000
1.9358395338058472 0.9774446487426758 0.7273746728897095 27.000
1.894142746925354 0.9568032622337341 0.49436405301094055 0.000
1.853561520576477 0.9358981847763062 0.27936071157455444 14.000
2.2780539989471436 1.1457619667053223 2.3522846698760986 12.000
2.183370351791382 1.0981380939483643 1.8631093502044678 16.000
2.0850703716278076 1.0486955642700195 1.4571202993392944 0.000
2.024228811264038 1.0180926322937012 1.1349040269851685 25.000
1.9663912057876587 0.9890003204345703 0.8552147150039673 31.000
1.9151033163070679 0.9632024168968201 0.6077450513839722 33.000
1.8801004886627197 0.9455949068069458 0.38573697209358215 34.000
1.8029133081436157 0.9067708849906921 0.17508389055728912 8.000
0.2831502854824066 0.09360437840223312 32.59803009033203 19.000
3.698350667953491 1.8351445198059082 13.245857238769531 0.000
4.050213813781738 2.015002489089966 10.716896057128906 14.000
3.1408751010894775 1.5646541118621826 6.497936248779297 10.000
2.7481167316436768 1.3701919317245483 4.582652568817139 7.000
2.502793550491333 1.2484180927276611 3.4252238273620605 0.000
2.239828586578369 1.0562719106674194 42.65814208984375 59.000
4.064732074737549 1.968675971031189 42.078617095947266 22.000
3.923921823501587 1.935150146484375 16.882232666015625 0.000
3.9648454189300537 1.9621926546096802 12.084287643432617 0.000
3.461219310760498 1.7167043685913086 8.052416801452637 12.000
2.898188591003418 1.4387105703353882 5.362698554992676 11.000
2.6010801792144775 1.292348027229309 3.920703411102295 11.000
2.408438205718994 1.1971542835235596 2.9939746856689453 15.000
2.335000991821289 1.1682851314544678 2.6455795764923096 8.000
2.2198851108551025 1.1111682653427124 2.0840516090393066 0.000
2.1370151042938232 1.0696853399276733 1.6514227390289307 0.000
2.049262523651123 1.0257583856582642 1.2861331701278687 27.000
1.9989057779312134 1.0005497932434082 0.9914527535438538 0.000
1.9349501132965088 0.9685342311859131 0.7259646654129028 27.000
1.8930786848068237 0.9479861259460449 0.4934313893318176 22.000
1.85236394405365 0.927193284034729 0.2789136469364166 12.000
2.278697967529297 1.1361370086669922 2.348958969116211 12.000
2.183573007583618 1.088706612586975 1.860166311264038 17.000
2.084860324859619 1.0394874811172485 1.4545871019363403 24.000
2.0237088203430176 1.0089954137802124 1.1328059434890747 23.000
1.9656051397323608 0.980023205280304 0.8535711765289307 31.000
1.9141037464141846 0.9543426036834717 0.6065727472305298 36.000
1.8789581060409546 0.9368168115615845 0.3850463032722473 33.000
1.8060674667358398 0.9004720449447632 0.17508389055728912 9.000
0.28347527980804443 0.09261542558670044 32.59803009033203 19.000
5.83786678314209 2.8575210571289062 31.27197265625 0.000
3.6980369091033936 1.818929672241211 13.221997261047363 0.000
4.039700984954834 1.9922116994857788 10.670870780944824 14.000
3.1377274990081787 1.5494391918182373 6.480380058288574 10.000
2.7478373050689697 1.3580973148345947 4.5743865966796875 7.000
2.49851655960083 1.2354122400283813 3.4137113094329834 11.000
2.2432405948638916 1.0483248233795166 42.65314865112305 71.000
4.071098327636719 1.954244613647461 42.073646545410156 23.000
3.9306528568267822 1.9214411973953247 16.882232666015625 0.000
3.9530789852142334 1.9392207860946655 12.027975082397461 0.000
3.4574222564697266 1.6998096704483032 8.02991008758545 11.000
2.896172523498535 1.4251309633255005 5.34990119934082 11.000
2.602872133255005 1.2819292545318604 3.916713237762451 10.000
2.4095611572265625 1.187241554260254 2.9902994632720947 15.000
2.3326752185821533 1.1569583415985107 2.638570547103882 7.000
2.2202634811401367 1.1016826629638672 2.0809133052825928 0.000
2.136990547180176 1.0603607892990112 1.6486812829971313 0.000
2.044894218444824 1.0146609544754028 1.2814955711364746 27.000
2.0023860931396484 0.9935661554336548 0.9914527535438538 0.000
1.9340217113494873 0.9596418142318726 0.7245545983314514 26.000
1.8919763565063477 0.9391881227493286 0.49249881505966187 21.000
1.851128101348877 0.9185081720352173 0.2784665524959564 12.000
2.2759552001953125 1.12486732006073 2.3423080444335938 11.000
2.1873600482940674 1.0810779333114624 1.860166311264038 17.000
2.084611415863037 1.0302934646606445 1.4520537853240967 24.000
2.0231497287750244 0.999914288520813 1.1307079792022705 22.000
1.9647809267044067 0.9710638523101807 0.8519276976585388 34.000
1.913066029548645 0.9455018639564514 0.6054004430770874 35.000
1.877777338027954 0.9280582666397095 0.3843556046485901 32.000
1.8002421855926514 0.8897351026535034 0.17468082904815674 8.000
0.2837968170642853 0.09162534773349762 32.59803009033203 18.000
5.854218482971191 2.8402369022369385 31.306238174438477 0.000
3.7164387702941895 1.8118970394134521 13.264945030212402 0.000
4.029078483581543 1.969518780708313 10.624845504760742 14.000
3.132361650466919 1.533212661743164 6.45843505859375 11.000
2.742453098297119 1.3435454368591309 4.557855129241943 0.000
2.4941792488098145 1.2224514484405518 3.4021990299224854 10.000
2.2468862533569336 1.0404880046844482 42.65314865112305 84.000
4.0783772468566895 1.940251111984253 42.078617095947266 23.000
3.9543039798736572 1.915929913520813 16.95482635498047 23.000
3.9613759517669678 1.9261647462844849 12.03266716003418 0.000
3.4515929222106934 1.682008981704712 8.00290298461914 11.000
2.891753673553467 1.4104397296905518 5.3328375816345215 11.000
2.6019153594970703 1.2701917886734009 3.9087331295013428 10.000
2.4075982570648193 1.1758480072021484 2.9829492568969727 15.000
2.330298662185669 1.1456618309020996 2.631561517715454 7.000
2.2206029891967773 1.0922077894210815 2.0777747631073 0.000
2.1369264125823975 1.0510493516921997 1.645939826965332 0.000
2.0484235286712646 1.0075167417526245 1.2814955711364746 30.000
2.0016820430755615 0.9845243692398071 0.9895796775817871 0.000
1.9330554008483887 0.9507678747177124 0.7231446504592896 26.000
1.8908354043960571 0.9304092526435852 0.49156615138053894 0.000
1.8409167528152466 0.9054471850395203 0.2771253287792206 10.000
2.276515007019043 1.1152732372283936 2.338982582092285 10.000
2.187490701675415 1.071657657623291 1.8572230339050293 17.000
2.0843238830566406 1.0211141109466553 1.4495207071304321 24.000
2.022552013397217 0.9908493757247925 1.1286098957061768 22.000
1.9639179706573486 0.9621220827102661 0.8502841591835022 32.000
1.9119899272918701 0.9366798996925354 0.6042280793190002 32.000
1.8810056447982788 0.9214979410171509 0.3843556046485901 0.000
1.7988505363464355 0.8812477588653564 0.17447930574417114 8.000
0.2841566205024719 0.09064710140228271 32.60302734375 18.000
5.868685722351074 2.821990489959717 31.33071517944336 0.000
3.717365264892578 1.7963156700134277 13.245857238769531 0.000
4.020105838775635 1.9477763175964355 10.583422660827637 13.000
3.129075288772583 1.5180877447128296 6.440878868103027 11.000
2.742063283920288 1.3315057754516602 4.549589157104492 0.000
2.4897820949554443 1.209536075592041 3.390686511993408 10.000
2.2512919902801514 1.0329997539520264 42.66812515258789 97.000
4.084641933441162 1.9257755279541016 42.073646545410156 23.000
3.9734318256378174 1.9081003665924072 17.008060455322266 20.000
3.9618570804595947 1.909328579902649 12.013895988464355 0.000
3.445681571960449 1.6642696857452393 7.975895881652832 12.000
2.891963005065918 1.3980666399002075 5.324305057525635 11.000
2.6009085178375244 1.2584770917892456 3.9007532596588135 9.000
2.402533769607544 1.1630053520202637 2.971923828125 15.000
2.331077814102173 1.1359584331512451 2.6280570030212402 7.000
2.217404365539551 1.0810385942459106 2.071497917175293 0.000
2.1368236541748047 1.0417513847351074 1.6431983709335327 17.000
2.047945976257324 0.9984190464019775 1.2791767120361328 28.000
2.00093936920166 0.97549968957901 0.9877066612243652 27.000
1.9363625049591064 0.9440145492553711 0.7231446504592896 27.000
1.8896567821502686 0.9216500520706177 0.4906335473060608 25.000
1.8395899534225464 0.8968334197998047 0.27667826414108276 10.000
2.273676872253418 1.1040581464767456 2.332331657409668 10.000
2.187581777572632 1.062249779701233 1.8542799949645996 17.000
2.0839977264404297 1.0119491815567017 1.446987509727478 25.000
2.0219156742095947 0.98180091381073 1.126511812210083 23.000
1.9672642946243286 0.9552608728408813 0.8502841591835022 29.000
1.9108750820159912 0.927876889705658 0.6030557155609131 32.000
1.8886651992797852 0.9170894026756287 0.3850463032722473 0.000
1.7974215745925903 0.8727810382843018 0.17427778244018555 9.000
0.2846381366252899 0.08970585465431213 32.62302780151367 18.000
5.878500461578369 2.801487684249878 31.33071517944336 0.000
3.722266435623169 1.7826838493347168 13.241085052490234 0.000
4.012791156768799 1.9269661903381348 10.546602249145508 12.000
3.1257216930389404 1.503004550933838 6.423322677612305 11.000
2.7390875816345215 1.3182651996612549 4.5371904373168945 9.000
2.488213300704956 1.198056697845459 3.3830113410949707 8.000
2.2556722164154053 1.0254932641983032 42.683101654052734 102.000
4.091339588165283 1.9115056991577148 42.073646545410156 24.000
3.9936883449554443 1.9007008075714111 17.066131591796875 0.000
3.9669406414031982 1.8947436809539795 12.00920295715332 0.000
3.4416520595550537 1.6475319862365723 7.953389644622803 12.000
2.8897695541381836 1.3845826387405396 5.311507701873779 11.000
2.599851608276367 1.2467846870422363 3.892772912979126 9.000
2.400465726852417 1.1516790390014648 2.964573621749878 13.000
2.328606128692627 1.124712347984314 2.6210479736328125 8.000
2.2176599502563477 1.0715984106063843 2.068359375 12.000
2.1366825103759766 1.0324668884277344 1.6404569149017334 17.000
2.0474300384521484 0.9893370270729065 1.2768579721450806 25.000
2.0001583099365234 0.966492235660553 0.9858335852622986 30.000
1.9353266954421997 0.9351624846458435 0.7217345833778381 27.000
1.8884398937225342 0.9129104018211365 0.48970091342926025 25.000
1.838225245475769 0.8882399201393127 0.27623116970062256 9.000
2.2775168418884277 1.0961147546768188 2.332331657409668 0.000
2.1876344680786133 1.0528544187545776 1.8513367176055908 17.000
2.0836331844329834 1.002799153327942 1.444454312324524 26.000
2.0212409496307373 0.9727689623832703 1.1244137287139893 23.000
1.9620769023895264 0.9442923665046692 0.8469971418380737 28.000
1.9097228050231934 0.9190931916236877 0.6018834710121155 33.000
1.891855001449585 0.9104911088943481 0.3850463032722473 0.000
1.8049589395523071 0.8686680197715759 0.17447930574417114 7.000
0.284699022769928 0.08863580971956253 32.59303283691406 18.000
5.893636703491211 2.7697055339813232 41.39634323120117 0.000
5.886402130126953 2.780081272125244 31.320924758911133 0.000
3.725769281387329 1.7683995962142944 13.23154067993164 0.000
4.0036163330078125 1.9053914546966553 10.505179405212402 12.000
3.1223011016845703 1.4879634380340576 6.405766010284424 11.000
2.7360522747039795 1.3050614595413208 4.524791240692139 0.000
2.483701467514038 1.1852226257324219 3.3714990615844727 8.000
2.258448600769043 1.0172576904296875 42.66812515258789 112.000
4.097019672393799 1.8967649936676025 42.06370544433594 24.000
4.01280403137207 1.8926465511322021 17.119365692138672 19.000
3.9704108238220215 1.879408359527588 11.999817848205566 115.000
3.4355809688568115 1.6299099922180176 7.926382541656494 12.000
2.8875174522399902 1.3711310625076294 5.298709869384766 11.000
2.596022844314575 1.2338215112686157 3.880802869796753 8.000
2.398347854614258 1.1403813362121582 2.9572231769561768 0.000
2.329301357269287 1.115037441253662 2.6175432205200195 9.000
2.217876434326172 1.0621695518493652 2.065220832824707 12.000
2.1365017890930176 1.0231959819793701 1.6377153396606445 17.000
2.0468757152557373 0.9802707433700562 1.2745391130447388 24.000
1.9993386268615723 0.9575020670890808 0.9839606285095215 30.000
1.9342527389526367 0.9263292551040649 0.7203245759010315 28.000
1.8871850967407227 0.9041904807090759 0.4887683093547821 26.000
1.8368231058120728 0.8796669244766235 0.27578410506248474 9.000
2.2745888233184814 1.084943175315857 2.325680732727051 0.000
2.187648296356201 1.0434718132019043 1.8483936786651611 16.000
2.0832297801971436 0.9936638474464417 1.4419211149215698 26.000
2.0164313316345215 0.9617998003959656 1.1202176809310913 23.000
1.9653609991073608 0.9374376535415649 0.8469971418380737 0.000
1.9129194021224976 0.9124214053153992 0.6018834710121155 32.000
1.890552043914795 0.9017499089241028 0.3843556046485901 0.000
1.8034708499908447 0.8602114915847778 0.17427778244018555 7.000
0.2847558557987213 0.08756642043590546 32.56303024291992 18.000
5.917356491088867 2.755676507949829 41.4951286315918 0.000
5.895148277282715 2.759085178375244 31.316028594970703 0.000
3.722464084625244 1.7509362697601318 13.198137283325195 0.000
3.994339942932129 1.883904218673706 10.463756561279297 12.000
3.120978832244873 1.473987102508545 6.392598628997803 11.000
2.7355031967163086 1.2930978536605835 4.5165252685546875 10.000
2.4820284843444824 1.1738051176071167 3.363823890686035 10.000
2.2619857788085938 1.0093681812286377 42.66812515258789 120.000
4.103131294250488 1.8822298049926758 42.05873107910156 24.000
4.034189701080322 1.885546326637268 17.18227767944336 0.000
3.9753847122192383 1.864804744720459 11.995124816894531 124.000
3.431399345397949 1.6132766008377075 7.903876781463623 12.000
2.887566328048706 1.3588224649429321 5.290177822113037 11.000
2.5948619842529297 1.2221843004226685 3.8728227615356445 8.000
2.3961806297302246 1.1291124820709229 2.9498729705810547 0.000
2.3299570083618164 1.1053712368011475 2.6140387058258057 9.000
2.2180542945861816 1.0527522563934326 2.062082529067993 0.000
2.1362829208374023 1.0139390230178833 1.6349740028381348 17.000
2.046283483505249 0.9712205529212952 1.2722203731536865 24.000
1.9984804391860962 0.9485294222831726 0.9820875525474548 30.000
1.9374743700027466 0.9195718169212341 0.7203245759010315 25.000
1.885892391204834 0.8954904079437256 0.48783567547798157 26.000
1.8398826122283936 0.8732498288154602 0.27578410506248474 10.000
2.274986505508423 1.0754010677337646 2.322355031967163 9.000
2.1839685440063477 1.0323742628097534 1.8425073623657227 16.000
2.0827884674072266 0.9845438003540039 1.4393880367279053 27.000
2.0156733989715576 0.9528157711029053 1.1181195974349976 23.000
1.964352011680603 0.9285534024238586 0.8453536033630371 0.000
1.9116981029510498 0.9036611914634705 0.6007111072540283 32.000
1.8936882019042969 0.8951451182365417 0.3843556046485901 14.000
1.8064625263214111 0.8539109230041504 0.17427778244018555 9.000
0.2851434648036957 0.08659664541482925 32.57303237915039 18.000
5.941049098968506 2.7415151596069336 41.59391403198242 0.000
5.910285949707031 2.741060972213745 31.345401763916016 0.000
3.735318899154663 1.7410849332809448 13.221997261047363 0.000
3.9867324829101562 1.8633323907852173 10.426936149597168 13.000
3.1174283027648926 1.4590229988098145 6.37504243850708 11.000
2.732355833053589 1.27996027469635 4.50412654876709 10.000
2.4803061485290527 1.1624138355255127 3.3561489582061768 0.000
2.264967203140259 1.0012327432632446 42.65814208984375 122.000
4.108705520629883 1.8674546480178833 42.048789978027344 25.000
4.049871921539307 1.8756786584854126 17.220993041992188 18.000
3.9787402153015137 1.8494620323181152 11.985739707946777 126.000
3.4251699447631836 1.5957729816436768 7.876868724822998 12.000
2.8852007389068604 1.3454281091690063 5.277379989624023 0.000
2.59092116355896 1.2092959880828857 3.8608527183532715 8.000
2.4001071453094482 1.120741367340088 2.9498729705810547 0.000
2.3305740356445312 1.0957140922546387 2.610534191131592 9.000
2.218193292617798 1.0433467626571655 2.0589439868927 12.000
2.1360254287719727 1.004696249961853 1.632232427597046 17.000
2.0416438579559326 0.9603009223937988 1.2675827741622925 28.000
1.997584342956543 0.9395745396614075 0.980214536190033 30.000
1.9363313913345337 0.9107613563537598 0.7189145088195801 25.000
1.8890067338943481 0.8889018893241882 0.48783567547798157 31.000
1.8429195880889893 0.8668221235275269 0.27578410506248474 11.000
2.2719640731811523 1.0642857551574707 2.315704107284546 9.000
2.1838982105255127 1.0230298042297363 1.8395640850067139 17.000
2.082308769226074 0.9754388928413391 1.4368547201156616 26.000
2.0148768424987793 0.9438486695289612 1.1160215139389038 24.000
1.9675811529159546 0.9216909408569336 0.8453536033630371 24.000
1.914840817451477 0.8969826698303223 0.6007111072540283 35.000
1.8968013525009155 0.8885295391082764 0.3843556046485901 12.000
1.804908037185669 0.845480740070343 0.17407622933387756 9.000
0.2855696976184845 0.08563742786645889 32.58803176879883 18.000
5.943516254425049 2.717529296875 41.54452133178711 0.000
5.915191173553467 2.718287467956543 31.320924758911133 0.000
3.746793746948242 1.730539083480835 13.241085052490234 0.000
3.977257490158081 1.8420155048370361 10.385513305664062 13.000
3.1159839630126953 1.4451096057891846 6.361875057220459 11.000
2.7265970706939697 1.26567542552948 4.487595081329346 11.000
2.478534460067749 1.1510486602783203 3.3484737873077393 7.000
2.268183708190918 0.993204653263092 42.65314865112305 118.000
4.114713191986084 1.8528823852539062 42.04381561279297 25.000
4.080384731292725 1.8725398778915405 17.322620391845703 0.000
3.9851715564727783 1.8355622291564941 11.985739707946777 152.000
3.4208366870880127 1.5792449712753296 7.854362964630127 12.000
2.8804094791412354 1.3309729099273682 5.260316371917725 0.000
2.5896565914154053 1.1977148056030273 3.852872848510742 7.000
2.400927782058716 1.1109329462051392 2.946197509765625 0.000
2.3279192447662354 1.0845602750778198 2.603525161743164 10.000
2.214766025543213 1.03230881690979 2.0526671409606934 12.000
2.1357295513153076 0.995467483997345 1.6294909715652466 17.000
2.0449838638305664 0.9531683921813965 1.2675827741622925 25.000
2.00085186958313 0.93259596824646 0.980214536190033 27.000
1.9351509809494019 0.9019702076911926 0.7175045013427734 28.000
1.887646198272705 0.8802266716957092 0.4869030714035034 29.000
1.8504477739334106 0.8624876737594604 0.27623116970062256 12.000
2.2722787857055664 1.0547765493392944 2.3123786449432373 9.000
2.1837899684906006 1.0136985778808594 1.8366210460662842 17.000
2.0817906856536865 0.9663493037223816 1.434321641921997 26.000
2.014042615890503 0.9348987936973572 1.11392343044281 24.000
1.966503381729126 0.9128290414810181 0.8437101244926453 24.000
1.9179601669311523 0.8902931809425354 0.6007111072540283 35.000
1.8953996896743774 0.8798181414604187 0.38366493582725525 12.000
1.8033167123794556 0.8370717763900757 0.17387470602989197 8.000
0.2859088182449341 0.08465214818716049 32.59303283691406 18.000
5.952966213226318 2.6967661380767822 41.54452133178711 0.000
5.923717498779297 2.6972014904022217 31.316028594970703 0.000
3.748739719390869 1.715586543083191 13.226768493652344 0.000
3.9694581031799316 1.821602463722229 10.34869384765625 13.000
3.112304449081421 1.4302237033843994 6.344318866729736 11.000
2.7258853912353516 1.253798246383667 4.479328632354736 11.000
2.4767136573791504 1.1397103071212769 3.340798854827881 0.000
2.271372079849243 0.9851663708686829 42.64815902709961 115.000
4.121155738830566 1.838508129119873 42.04381561279297 25.000
4.104060173034668 1.8660892248153687 17.395214080810547 13.000
3.9899849891662598 1.8209238052368164 11.981046676635742 176.000
3.416430711746216 1.5627669095993042 7.831857204437256 12.000
2.8779244422912598 1.3176534175872803 5.247518539428711 17.000
2.5883431434631348 1.1861573457717896 3.844892740249634 7.000
2.4017093181610107 1.1011325120925903 2.9425225257873535 16.000
2.3252151012420654 1.0734381675720215 2.5965158939361572 11.000
2.21482253074646 1.0229395627975464 2.0495288372039795 12.000
2.135395050048828 0.986253023147583 1.6267495155334473 17.000
2.044276714324951 0.9441667795181274 1.2652639150619507 24.000
1.9998862743377686 0.9236621856689453 0.9783414602279663 27.000
1.938287615776062 0.895209789276123 0.7175045013427734 29.000
1.89070725440979 0.8736321926116943 0.4869030714035034 28.000
1.848926305770874 0.8539351224899292 0.27578410506248474 12.000
2.26916241645813 1.043717861175537 2.305727481842041 10.000
2.183642864227295 1.004380464553833 1.8336777687072754 17.000
2.081234931945801 0.9572752714157104 1.431788444519043 26.000
2.017293930053711 0.9278627634048462 1.11392343044281 24.000
1.9653877019882202 0.9039857983589172 0.8420665860176086 27.000
1.9166405200958252 0.8815617561340332 0.5995388031005859 35.000
1.9029581546783447 0.8752657771110535 0.3843556046485901 0.000
1.8016889095306396 0.8286843299865723 0.17367318272590637 8.000
0.2862445116043091 0.08366554975509644 32.59803009033203 18.000
5.960926055908203 2.6753339767456055 41.534645080566406 0.000
5.9238152503967285 2.672320604324341 31.267078399658203 0.000
3.7642219066619873 1.7068052291870117 13.260173797607422 0.000
3.961564779281616 1.8012665510177612 10.311873435974121 12.000
3.1085593700408936 1.4153814315795898 6.326762676239014 11.000
2.7225635051727295 1.2407746315002441 4.466929912567139 11.000
2.474844217300415 1.1283985376358032 3.3331236839294434 0.000
2.275062322616577 0.9773456454277039 42.65314865112305 125.000
4.127060890197754 1.823895812034607 42.03884506225586 25.000
4.130032062530518 1.8605283498764038 17.477481842041016 0.000
3.99631667137146 1.8069850206375122 11.981046676635742 191.000
3.4119503498077393 1.546338677406311 7.809350967407227 12.000
2.8730056285858154 1.3032898902893066 5.230454921722412 17.000
2.5869803428649902 1.1746234893798828 3.8369128704071045 7.000
2.399365186691284 1.0899381637573242 2.9351723194122314 15.000
2.322462320327759 1.0623482465744019 2.5895068645477295 9.000
2.2148401737213135 1.013582468032837 2.0463902950286865 12.000
2.1350228786468506 0.9770532250404358 1.624008059501648 17.000
2.043531894683838 0.9351819157600403 1.2629451751708984 24.000
1.99888277053833 0.9147465825080872 0.9764685034751892 29.000
1.9414006471633911 0.8884384632110596 0.7175045013427734 31.000
1.889278769493103 0.8649821877479553 0.4859704375267029 26.000
1.847367286682129 0.8454036712646484 0.27533701062202454 12.000
2.2659966945648193 1.0326939821243286 2.299076557159424 10.000
2.183457374572754 0.9950758814811707 1.8307347297668457 16.000
2.080641269683838 0.94821697473526 1.4292552471160889 27.000
2.016390562057495 0.9189333915710449 1.1118254661560059 24.000
1.9685313701629639 0.8971198201179504 0.8420665860176086 30.000
1.9152830839157104 0.8728504180908203 0.5983664989471436 35.000
1.9060019254684448 0.8686178922653198 0.3843556046485901 19.000
1.8045706748962402 0.8223901987075806 0.17367318272590637 9.000
0.28653484582901 0.08266586810350418 32.59803009033203 18.000
5.970938205718994 2.654825448989868 41.539581298828125 0.000
5.932177543640137 2.6512107849121094 31.262182235717773 10.000
3.7742414474487305 1.6954901218414307 13.27448844909668 0.000
3.95535945892334 1.7818102836608887 10.279655456542969 12.000
3.104748487472534 1.4005826711654663 6.309206485748291 11.000
2.7166190147399902 1.2266316413879395 4.4503984451293945 11.000
2.472925901412964 1.1171139478683472 3.325448989868164 0.000
2.2787256240844727 0.9695112705230713 42.65814208984375 133.000
4.133890628814697 1.8096922636032104 42.04381561279297 25.000
4.156014919281006 1.854809045791626 17.55975341796875 0.000
3.997875213623047 1.790907859802246 11.966968536376953 209.000
3.405411720275879 1.529069185256958 7.782343864440918 12.000
2.8680222034454346 1.288977026939392 5.213391304016113 20.000
2.585568904876709 1.1631138324737549 3.828932523727417 0.000
2.4000635147094727 1.0801647901535034 2.9314968585968018 15.000
2.3229076862335205 1.052762746810913 2.5860023498535156 9.000
2.214820146560669 1.0042377710342407 2.0432517528533936 13.000
2.1346118450164795 0.9678678512573242 1.6212666034698486 16.000
2.0427494049072266 0.9262136220932007 1.2606263160705566 0.000
1.997841477394104 0.9058490991592407 0.9745954275131226 32.000
1.9401211738586426 0.8796753883361816 0.716094434261322 31.000
1.8922865390777588 0.8583820462226868 0.4859704375267029 25.000
1.8457716703414917 0.8368935585021973 0.2748899459838867 13.000
2.2661848068237305 1.023241400718689 2.2957510948181152 10.000
2.1832339763641357 0.9857848882675171 1.827791452407837 16.000
2.080009698867798 0.939174473285675 1.4267220497131348 28.000
2.0195860862731934 0.911889374256134 1.1118254661560059 27.000
1.9673470258712769 0.8882997632026672 0.8404231071472168 30.000
1.9138882160186768 0.864159345626831 0.5971941947937012 36.000
1.9180487394332886 0.8660350441932678 0.38573697209358215 0.000
1.807430386543274 0.8160861134529114 0.17367318272590637 9.000
0.2868216335773468 0.08166516572237015 32.59803009033203 18.000
5.983724594116211 2.635532855987549 41.56427764892578 0.000
6.865923881530762 3.0397958755493164 36.12314224243164 7.000
3.7869560718536377 1.6853399276733398 13.298349380493164 0.000
3.945498466491699 1.7608269453048706 10.238232612609863 12.000
3.1030588150024414 1.3868049383163452 6.29603910446167 11.000
2.7157466411590576 1.2148431539535522 4.442131996154785 12.000
2.4738845825195312 1.1071656942367554 3.3216114044189453 0.000
2.2820961475372314 0.9615511298179626 42.65814208984375 115.000
4.140671253204346 1.7954633235931396 42.048789978027344 25.000
4.180858135223389 1.8484224081039429 17.637184143066406 11.000
4.0025248527526855 1.7762418985366821 11.962275505065918 212.000
3.400783061981201 1.5127489566802979 7.7598371505737305 12.000
2.867738962173462 1.2768362760543823 5.204859256744385 14.000
2.584108591079712 1.1516282558441162 3.820952892303467 7.000
2.3976266384124756 1.0690193176269531 2.9241466522216797 0.000
2.320061683654785 1.0417263507843018 2.578993082046509 9.000
2.214761257171631 0.9949055314064026 2.0401132106781006 14.000
2.1341631412506104 0.9586973786354065 1.6185251474380493 16.000
2.041929244995117 0.9172623753547668 1.2583075761795044 0.000
1.996762752532959 0.8969703912734985 0.9727224111557007 32.000
1.9431800842285156 0.872897744178772 0.716094434261322 34.000
1.8907909393310547 0.849757969379425 0.48503783345222473 25.000
1.8441388607025146 0.8284049034118652 0.2744428515434265 11.000
2.2629261016845703 1.0122755765914917 2.289100170135498 10.000
2.1792821884155273 0.974856972694397 1.8219051361083984 0.000
2.0754051208496094 0.9283876419067383 1.4216556549072266 27.000
2.018613576889038 0.9029808044433594 1.109727382659912 31.000
1.9661250114440918 0.8794987201690674 0.8387795686721802 33.000
1.9124560356140137 0.8554885983467102 0.596021831035614 36.000
1.9074991941452026 0.8532683849334717 0.38366493582725525 0.000
1.805707573890686 0.8077320456504822 0.17347164452075958 9.000
0.2871049642562866 0.08066347241401672 32.59803009033203 18.000
5.992887496948242 2.6146297454833984 41.56427764892578 0.000
6.8755598068237305 3.015401840209961 36.11824417114258 10.000
3.7969133853912354 1.6739171743392944 13.312664985656738 0.000
3.9409003257751465 1.7423043251037598 10.210618019104004 12.000
3.096930980682373 1.371117115020752 6.2740936279296875 10.000
2.712252616882324 1.201935887336731 4.4297332763671875 0.000
2.4689443111419678 1.0946263074874878 3.310098886489868 7.000
2.2854385375976562 0.9535792469978333 42.65814208984375 104.000
4.147403717041016 1.7812093496322632 42.05376434326172 25.000
4.2114644050598145 1.8444061279296875 17.738811492919922 0.000
4.011860370635986 1.763648509979248 11.971661567687988 0.000
3.3960821628570557 1.496479868888855 7.737331390380859 12.000
2.8650197982788086 1.2636609077453613 5.192061424255371 8.000
2.582599639892578 1.1401671171188354 3.8129725456237793 8.000
2.3951416015625 1.0579041242599487 2.9167962074279785 15.000
2.320425510406494 1.0321720838546753 2.575488805770874 9.000
2.2146646976470947 0.9855860471725464 2.0369749069213867 14.000
2.133676290512085 0.9495418667793274 1.61578369140625 17.000
2.041071653366089 0.9083280563354492 1.2559887170791626 18.000
1.9914106130599976 0.886225163936615 0.9689763784408569 30.000
1.9418325424194336 0.8641591668128967 0.7146844267845154 33.000
1.8937455415725708 0.8431527018547058 0.48503783345222473 28.000
1.8424696922302246 0.8199378848075867 0.2739957869052887 10.000
2.2630321979522705 1.0028574466705322 2.2857744693756104 10.000
2.178976058959961 0.9656062722206116 1.8189619779586792 0.000
2.0746922492980957 0.9193910360336304 1.419122576713562 26.000
2.0217533111572266 0.8959290385246277 1.109727382659912 31.000
1.9648659229278564 0.8707171678543091 0.8371360898017883 32.000
1.9154306650161743 0.8488076329231262 0.596021831035614 36.000
1.896883487701416 0.8405858874320984 0.38159289956092834 0.000
1.8039484024047852 0.7993999123573303 0.1732701063156128 9.000
0.2873847782611847 0.0796607956290245 32.59803009033203 18.000
6.003404140472412 2.594310998916626 41.57415771484375 0.000
6.879506587982178 2.9885432720184326 36.08397674560547 19.000
3.805469512939453 1.6618480682373047 13.322208404541016 0.000
3.9326412677764893 1.722267746925354 10.173797607421875 12.000
3.0929245948791504 1.3564509153366089 6.256537437438965 11.000
2.706124782562256 1.187936544418335 4.413201808929443 0.000
2.4668803215026855 1.0834236145019531 3.3024237155914307 7.000
2.28902006149292 0.9457060098648071 42.66313171386719 82.000
4.1535964012146 1.766721487045288 42.05376434326172 25.000
4.223642349243164 1.8321950435638428 17.76300811767578 10.000
3.3893141746520996 1.479391098022461 7.710324287414551 12.000
2.864633560180664 1.2515640258789062 5.183529376983643 0.000
2.5782811641693115 1.1275233030319214 3.8010025024414062 9.000
2.3926076889038086 1.0468193292617798 2.9094460010528564 14.000
2.3174872398376465 1.0211900472640991 2.568479537963867 9.000
2.2145297527313232 0.9762792587280273 2.0338363647460938 14.000
2.1331520080566406 0.9404014348983765 1.6130422353744507 17.000
2.0401763916015625 0.8994109630584717 1.2536699771881104 18.000
1.9902498722076416 0.8773983120918274 0.9671033024787903 29.000
1.9404475688934326 0.8554404973983765 0.713274359703064 33.000
1.8921825885772705 0.8345547318458557 0.4841051995754242 33.000
1.845320463180542 0.8135014772415161 0.2739957869052887 10.000
2.2631001472473145 0.9934511184692383 2.2824490070343018 9.000
2.174931287765503 0.9547449350357056 1.8130756616592407 0.000
2.073941230773926 0.9104105830192566 1.416589379310608 26.000
2.0207128524780273 0.8870421648025513 1.1076292991638184 31.000
1.9635694026947021 0.8619551062583923 0.8354925513267517 28.000
1.913931131362915 0.8401626348495483 0.5948495864868164 34.000
1.8907371759414673 0.8299784064292908 0.3802115321159363 30.000
1.80215322971344 0.7910900115966797 0.1730685830116272 9.000
0.2877454459667206 0.07867953181266785 32.608028411865234 18.000
6.015280723571777 2.5745625495910645 41.59391403198242 0.000
6.888962268829346 2.964108943939209 36.07908630371094 26.000
3.8098769187927246 1.6479616165161133 13.317437171936035 0.000
3.9224984645843506 1.7015326023101807 10.13237476348877 12.000
3.091050386428833 1.3427834510803223 6.243370056152344 11.000
2.7050936222076416 1.1762391328811646 4.404935359954834 0.000
2.464769124984741 1.072248935699463 3.2947490215301514 7.000
2.2920401096343994 0.9376007914543152 42.65814208984375 57.000
4.159738063812256 1.7522119283676147 42.05376434326172 26.000
4.258884429931641 1.8298451900482178 17.883995056152344 11.000
4.057351112365723 1.749949336051941 12.070208549499512 0.000
3.3844666481018066 1.4632319211959839 7.6878180503845215 12.000
2.8641979694366455 1.239485502243042 5.174997806549072 0.000
2.573906183242798 1.1149235963821411 3.7890326976776123 9.000
2.390026092529297 1.0357651710510254 2.9020957946777344 11.000
2.3177695274353027 1.0116676092147827 2.5649750232696533 9.000
2.2107901573181152 0.965427815914154 2.027559518814087 14.000
2.1287577152252197 0.9296029806137085 1.607559323310852 16.000
2.0392439365386963 0.890511155128479 1.2513511180877686 21.000
1.9933005571365356 0.870445728302002 0.9671033024787903 26.000
1.9390257596969604 0.8467421531677246 0.7118643522262573 34.000
1.8950841426849365 0.8279446959495544 0.4841051995754242 33.000
1.8435852527618408 0.8050622344017029 0.2735486924648285 10.000
2.263129949569702 0.9840565919876099 2.279123544692993 9.000
2.174544095993042 0.9455354809761047 1.8101325035095215 0.000
2.073153257369995 0.9014468193054199 1.4140561819076538 26.000
2.023797035217285 0.879983127117157 1.1076292991638184 31.000
1.9622358083724976 0.853212833404541 0.8338490724563599 28.000
1.9168522357940674 0.8334766626358032 0.5948495864868164 34.000
1.8799989223480225 0.817449688911438 0.3781394958496094 27.000
1.80032217502594 0.7828023433685303 0.1728670597076416 9.000
0.28797611594200134 0.0776635929942131 32.60302734375 18.000
6.029954433441162 2.5559751987457275 41.63343048095703 0.000
6.898330211639404 2.9396448135375977 36.074188232421875 31.000
3.815606117248535 1.6346524953842163 13.317437171936035 0.000
3.9140539169311523 1.6816606521606445 10.095555305480957 13.000
3.086918830871582 1.3281992673873901 6.225813388824463 10.000
2.701429605484009 1.1634501218795776 4.392536640167236 11.000
2.4655532836914062 1.0623703002929688 3.2909114360809326 8.000
2.2952990531921387 0.9295943379402161 42.65814208984375 43.000
4.165336608886719 1.7374756336212158 42.048789978027344 26.000
4.296474456787109 1.8282556533813477 18.014659881591797 0.000
4.101521968841553 1.752044916152954 12.182835578918457 0.000
3.383549928665161 1.4488383531570435 7.674314498901367 12.000
2.8613157272338867 1.2263978719711304 5.162199974060059 7.000
2.5722439289093018 1.1035561561584473 3.781052350997925 9.000
2.3873963356018066 1.0247418880462646 2.894745349884033 10.000
2.31473970413208 1.000740647315979 2.5579659938812256 9.000
2.2070016860961914 0.9546144604682922 2.02128267288208 14.000
2.1281516551971436 0.920506477355957 1.6048177480697632 16.000
2.038274049758911 0.8816288113594055 1.2490323781967163 25.000
1.9920718669891357 0.8616421818733215 0.9652302861213684 26.000
1.9375665187835693 0.8380640745162964 0.7104542851448059 34.000
1.8934545516967773 0.8193737268447876 0.48317259550094604 33.000
1.8463841676712036 0.7986220121383667 0.2735486924648285 11.000
2.2631218433380127 0.974673867225647 2.2757980823516846 9.000
2.174118995666504 0.9363403916358948 1.8071893453598022 0.000
2.076287269592285 0.8942046761512756 1.4140561819076538 21.000
2.0226874351501465 0.8711181282997131 1.1055312156677246 31.000
1.960864782333374 0.8444902300834656 0.8322055339813232 30.000
1.915285587310791 0.8248579502105713 0.5936772227287292 35.000
1.8828409910202026 0.8108822703361511 0.3781394958496094 27.000
